ply
format ascii 1.0
element vertex 1663
property float x
property float y
property float z
end_header
1.836311 -0.260000 1.133276
0.858162 -0.260000 -1.437956
1.324542 -0.260000 -0.450572
-1.465551 -0.260000 0.502380
-0.535894 0.250000 -0.819987
-0.145839 0.048826 -1.000000
-0.038646 -0.260000 -1.897395
0.907480 -0.260000 0.990950
-0.544622 -0.250000 0.110983
1.935244 -0.260000 1.023198
0.337370 0.250000 -0.924694
1.845522 -0.260000 0.362742
0.859624 0.243744 1.000000
0.976156 -0.260000 -0.010462
0.596224 0.250000 0.675815
0.148978 0.250000 0.288649
-0.924573 -0.250000 -0.343601
0.713791 0.250000 -0.572945
-0.755748 0.250000 -0.593348
-0.341941 -0.260000 -1.386562
-1.979290 -0.260000 0.181438
0.199513 -0.250000 0.604662
-0.405647 0.250000 -0.622806
-1.551293 -0.260000 -0.030402
0.305679 -0.260000 0.360581
-0.463083 -0.260000 -0.506922
-0.919016 -0.250000 -0.660084
-0.647768 0.250000 0.434550
0.922612 -0.260000 0.626684
-0.593010 -0.005509 1.000000
0.889976 -0.250000 0.840542
-1.682484 -0.260000 0.182866
-0.976068 -0.250000 -0.399445
1.891807 -0.260000 1.791171
-0.746655 -0.260000 1.727915
0.205561 -0.250000 -0.841749
1.649597 -0.260000 0.543790
1.804969 -0.260000 1.728349
1.036294 -0.260000 -1.130215
1.801577 -0.260000 0.520010
1.000000 0.062797 -0.148031
-0.257974 -0.195734 1.000000
-0.318077 -0.207876 -1.000000
0.161354 -0.250000 -0.533212
0.076470 0.250000 -0.299873
-0.410620 -0.260000 -0.173816
1.381907 -0.260000 -1.190103
-0.974307 -0.260000 -0.693001
-1.665321 -0.260000 -0.493057
1.178232 -0.260000 0.059162
0.847556 0.250000 0.475740
0.007549 -0.260000 -0.504198
-0.568121 -0.260000 1.926477
1.077480 -0.260000 1.685870
-0.652018 -0.260000 -1.683151
0.297743 -0.250000 0.596806
1.172390 -0.260000 0.836680
0.183715 0.250000 0.628705
0.915808 -0.260000 0.073436
0.673658 -0.260000 1.010977
-0.207212 -0.250000 -0.773778
1.596894 -0.260000 -1.682640
-0.479575 -0.250000 -0.493416
-1.184530 -0.260000 0.124095
-0.442611 -0.260000 0.395506
-1.473595 -0.260000 -1.856533
0.727457 -0.260000 -0.552200
1.381870 -0.260000 -1.785941
0.296895 -0.250000 -0.102300
0.018970 -0.250000 0.389094
0.451460 -0.260000 -0.457191
1.935525 -0.260000 1.979385
0.321848 -0.260000 1.698899
-0.964064 0.250000 -0.063630
-1.764067 -0.260000 -1.410559
0.366148 -0.260000 0.522000
0.536790 0.039556 -1.000000
1.354852 -0.260000 -0.900911
1.000000 -0.248145 0.476769
-1.484575 -0.260000 -0.944036
0.319762 -0.260000 0.884593
-0.022478 -0.260000 1.515458
1.633713 -0.260000 1.382843
0.988794 -0.250000 -0.109104
1.000000 -0.022368 0.424600
-1.467967 -0.260000 0.954027
1.670280 -0.260000 -0.439290
1.900531 -0.260000 -0.536708
1.394344 -0.260000 -0.790015
-0.720280 -0.250000 -0.670036
-0.793403 -0.260000 -1.278492
-0.458996 0.168301 -1.000000
1.183706 -0.260000 -0.948346
-0.138735 0.141385 -1.000000
0.804943 -0.260000 1.870732
-0.654978 -0.117196 1.000000
-1.077957 -0.260000 -1.179283
-1.423270 -0.260000 -0.418824
0.065440 -0.250000 -0.277232
0.502904 -0.260000 -0.354886
0.767554 -0.260000 -1.099550
0.003658 -0.260000 -1.747548
-0.833472 -0.260000 0.013917
0.415307 -0.250000 0.328213
-0.111064 0.250000 0.729516
-0.174259 -0.250000 -0.819703
0.407040 -0.260000 -1.718767
-0.474160 -0.260000 1.644704
-1.851928 -0.260000 -0.744230
1.398613 -0.260000 1.945859
0.988650 0.250000 -0.769447
0.217971 0.250000 -0.487175
-1.000000 0.037570 -0.058013
0.874447 -0.260000 -0.831861
0.160636 -0.140669 -1.000000
1.398282 -0.260000 0.460269
0.143959 0.250000 -0.409823
0.082771 -0.260000 -1.093943
-1.004999 -0.260000 0.887498
-0.620330 -0.260000 -1.465133
-0.161447 -0.260000 -1.221009
0.669750 -0.250000 0.166041
0.638620 -0.260000 1.500210
-1.323591 -0.260000 -0.640844
-1.574816 -0.260000 1.860526
0.167837 -0.250000 0.427455
1.811364 -0.260000 -1.776401
0.626817 -0.250000 -0.019011
-0.305572 -0.211004 1.000000
-1.642655 -0.260000 -0.967193
1.678126 -0.260000 0.383808
-0.092874 -0.176126 1.000000
-0.993710 0.250000 -0.985675
0.781749 -0.260000 0.128136
-0.827553 -0.250000 -0.687434
-0.476141 0.000432 -1.000000
0.519676 -0.250000 0.905777
0.191763 -0.250000 -0.306653
-0.846484 -0.250000 0.341930
0.502962 -0.250000 0.303762
0.998715 -0.250000 0.272856
0.256601 -0.260000 -0.330390
0.923890 -0.250000 0.968864
0.700235 -0.260000 1.279129
0.068924 -0.250000 0.921917
0.702652 -0.260000 -1.522102
0.826521 -0.250000 -0.189892
0.038891 -0.260000 -0.749479
-1.788166 -0.260000 1.754437
0.619181 0.250000 0.928053
-0.315477 0.243038 1.000000
0.413649 -0.250000 0.795588
-0.409305 0.250000 -0.140739
-0.161824 -0.260000 -1.846405
-1.000000 -0.008518 0.275034
-1.927393 -0.260000 -0.332558
-0.901304 0.250000 0.164380
1.000000 0.054841 0.414725
-0.852912 -0.148374 -1.000000
-0.229256 -0.260000 0.446359
0.132846 -0.250000 -0.083723
1.126852 -0.260000 -0.874536
0.842364 0.143432 -1.000000
0.341975 -0.250000 0.742913
-0.003755 0.209325 -1.000000
1.335684 -0.260000 -0.006699
-0.417934 -0.043624 -1.000000
1.055677 -0.260000 -1.362547
-0.279912 -0.260000 1.965589
-0.673251 -0.250000 -0.494626
1.820218 -0.260000 -0.946533
-0.018659 -0.260000 0.719029
0.429836 0.250000 -0.350116
0.813485 -0.260000 1.592953
0.447932 -0.260000 -0.981224
0.979829 -0.260000 -0.789623
-1.287959 -0.260000 -0.437126
-1.000000 -0.011536 0.756375
-0.776874 -0.260000 -0.882075
-0.149170 0.209576 -1.000000
-1.437354 -0.260000 -0.826123
-0.561111 -0.260000 -1.133311
-1.692182 -0.260000 0.369828
-0.379219 -0.260000 1.625243
-1.560196 -0.260000 -1.232399
-1.616507 -0.260000 -0.159298
0.446531 -0.260000 1.902993
1.000000 -0.159416 -0.521922
0.711156 -0.250000 -0.848087
-1.317222 -0.260000 0.593709
1.793183 -0.260000 -1.839576
-0.359880 -0.250000 0.786862
0.553928 0.250000 -0.521029
-0.076929 -0.250000 0.908977
0.997099 0.250000 0.611397
-0.996282 -0.260000 1.221926
0.058230 -0.260000 -1.249577
1.833784 -0.260000 1.084506
0.553137 -0.250000 -0.947719
-0.026853 -0.260000 -1.677215
-1.000000 0.149250 -0.526047
-1.664550 -0.260000 -1.116749
-1.517648 -0.260000 -0.362801
1.533787 -0.260000 1.894600
0.755319 -0.260000 -1.083180
1.774371 -0.260000 -0.093459
1.556957 -0.260000 1.976277
-0.211284 -0.250000 -0.015988
-1.796433 -0.260000 0.296895
-0.228413 -0.250000 -0.368115
1.000000 -0.177260 0.931108
-0.599632 0.250000 -0.956201
0.440517 -0.260000 -1.443896
1.783677 -0.260000 -0.941466
0.908402 -0.260000 1.083144
-0.254428 0.250000 -0.031090
-0.867722 -0.260000 -1.512682
-0.966777 -0.260000 -1.855501
0.178472 0.250000 -0.052006
1.751015 -0.260000 -0.195148
1.100958 -0.260000 1.810348
0.357982 0.250000 0.128604
1.626341 -0.260000 0.317431
-0.970231 -0.260000 0.176328
0.756291 -0.250000 0.552082
-1.588984 -0.260000 1.007699
1.887481 -0.260000 -0.592692
0.055535 -0.260000 -0.166968
0.075325 -0.260000 0.334455
-0.013049 0.144505 -1.000000
0.468621 -0.250000 -0.390719
-1.984562 -0.260000 1.898091
-0.175742 -0.260000 -0.915617
-0.393168 -0.260000 0.460646
1.312690 -0.260000 0.566209
-0.416082 -0.260000 -0.231714
1.000000 0.197173 -0.552201
-1.030568 -0.260000 0.355185
-0.948406 0.250000 -0.356953
-0.580910 -0.260000 -0.316365
-0.411741 -0.260000 -1.832015
-1.706358 -0.260000 0.575431
-0.462922 -0.197253 1.000000
-0.123133 -0.147680 -1.000000
-1.000000 -0.143368 -0.234976
0.996361 0.250000 -0.935675
0.899613 0.154181 1.000000
0.408294 -0.250000 0.196820
-0.308648 -0.260000 -0.063587
0.645887 -0.260000 1.203679
-0.821688 -0.260000 1.740869
-0.263132 -0.250000 0.004372
0.428582 -0.260000 1.739655
-0.312113 -0.250000 -0.553600
1.000000 -0.120004 0.879851
-1.454195 -0.260000 -0.563980
-1.000000 0.155043 -0.511952
-0.232548 0.250000 -0.822008
0.044707 -0.250000 -0.889874
-1.648674 -0.260000 1.727737
-0.998070 0.250000 0.091181
0.619540 -0.260000 -0.710043
-0.127581 -0.260000 -1.952043
-0.777648 -0.220609 -1.000000
-1.832611 -0.260000 -0.681277
0.613395 -0.250000 0.704899
0.783284 -0.260000 0.749897
1.224881 -0.260000 -0.669329
1.850214 -0.260000 0.255891
0.881107 -0.260000 0.974678
-0.541341 -0.250000 0.532949
0.694319 -0.250000 0.681400
0.806087 -0.250000 0.605530
1.857157 -0.260000 1.623159
1.529768 -0.260000 0.344182
1.554940 -0.260000 1.866690
0.531227 0.250000 0.403890
-0.493810 -0.260000 -1.479188
1.000000 -0.245236 0.796938
0.660295 -0.260000 -0.529168
1.734474 -0.260000 -0.280633
0.210561 -0.260000 -1.880532
-0.828554 -0.260000 -0.016946
0.944952 -0.260000 -1.132409
-0.381110 -0.260000 -0.828942
0.686081 -0.260000 -1.119026
0.369703 0.250000 0.720368
-1.164971 -0.260000 1.411892
-0.959362 -0.250000 0.371384
-0.345139 -0.250000 0.806796
-0.716665 -0.260000 -0.182707
0.225621 -0.260000 -0.166412
0.606813 0.250000 -0.053278
1.979742 -0.260000 0.030259
-1.887313 -0.260000 -1.455429
0.222409 0.250000 0.204231
-1.242827 -0.260000 -0.911130
1.605037 -0.260000 -0.480794
-0.236552 0.250000 -0.657630
-0.662657 0.250000 0.137883
0.622989 -0.250000 -0.730546
-1.000000 0.042824 0.689196
1.000000 -0.044035 -0.895903
-0.554274 0.250000 0.072003
-1.611958 -0.260000 0.835652
1.260780 -0.260000 0.300829
0.624757 -0.066377 1.000000
-0.953861 0.021661 -1.000000
0.359837 -0.250000 0.526950
1.346671 -0.260000 -1.142095
0.995623 -0.260000 0.005542
-1.202735 -0.260000 0.313609
-1.626242 -0.260000 1.335164
-1.000000 -0.002219 -0.922413
0.615623 -0.250000 -0.063493
1.801962 -0.260000 -0.738638
1.769367 -0.260000 0.082454
1.792729 -0.260000 0.274783
0.093593 -0.250000 -0.474608
-1.220477 -0.260000 0.633453
1.183470 -0.260000 0.208911
0.225173 -0.260000 0.076013
-0.291216 0.250000 -0.128747
0.914688 0.250000 0.650104
0.206863 -0.250000 0.827432
1.000000 -0.071648 -0.477548
1.989395 -0.260000 0.407511
-0.374390 -0.260000 -0.712079
-0.863404 -0.260000 -1.278818
-1.778461 -0.260000 0.167366
-0.841750 -0.043160 -1.000000
-0.867322 -0.260000 1.021292
0.043428 -0.260000 0.118295
-0.820954 0.116374 1.000000
1.867016 -0.260000 -0.969627
-1.769494 -0.260000 0.931905
1.132147 -0.260000 0.124112
-0.228491 -0.250000 0.492337
0.321121 -0.260000 -1.453494
-1.467243 -0.260000 -1.993190
0.843608 0.223356 1.000000
0.915319 0.250000 -0.087371
0.613797 -0.260000 -1.498948
1.044671 -0.260000 0.308119
0.718615 0.042282 1.000000
1.278730 -0.260000 -1.515333
-0.590747 -0.250000 -0.440232
-0.669556 -0.260000 -0.499921
1.221024 -0.260000 0.871576
-0.522200 -0.260000 -1.352299
-0.100179 0.227032 -1.000000
0.045028 -0.260000 0.678381
-0.486304 -0.195333 -1.000000
-0.380758 0.250000 0.879158
0.593033 0.250000 -0.800574
1.000000 0.052857 -0.192434
-1.915358 -0.260000 0.275158
1.152091 -0.260000 -0.821761
0.681898 0.250000 -0.602412
-0.604435 -0.260000 -0.827941
-1.658061 -0.260000 -0.593780
1.000000 -0.035466 0.123876
-1.102772 -0.260000 -0.775083
0.318443 -0.250000 0.276232
0.096966 0.122953 -1.000000
-1.116956 -0.260000 -0.017699
0.605785 -0.260000 1.818060
-1.000000 0.100637 0.817661
-0.405560 -0.260000 1.536721
0.238360 -0.250000 -0.516227
-0.026797 0.250000 -0.559698
-0.722492 -0.260000 -0.028821
-0.193827 0.250000 0.565588
1.055604 -0.260000 -1.480547
1.692742 -0.260000 -0.226762
0.564496 0.250000 -0.246575
-0.983705 -0.250000 -0.390319
0.102381 -0.260000 0.495479
-1.541105 -0.260000 1.587769
1.231878 -0.260000 -1.053383
0.998465 -0.250000 0.406104
0.044800 -0.260000 -0.822063
1.000000 -0.238869 -0.219402
1.000000 0.023195 0.888868
1.033983 -0.260000 -1.490051
-1.000000 -0.027881 0.576638
0.184870 0.250000 0.505455
-1.000000 -0.089293 0.530272
-0.547683 -0.260000 -0.218030
-0.022020 -0.128005 -1.000000
1.000000 0.243947 0.788422
-0.094846 -0.250000 -0.671869
1.646135 -0.260000 -1.838895
-0.823579 0.250000 -0.704350
-0.912609 0.054347 -1.000000
1.514390 -0.260000 1.313057
1.839604 -0.260000 1.039022
-0.182875 -0.260000 -1.483526
0.638525 -0.250000 0.816128
0.734060 -0.250000 -0.808529
-1.485529 -0.260000 -0.676633
0.868025 -0.250000 -0.259408
1.413054 -0.260000 0.118138
-1.629365 -0.260000 -0.200852
0.971762 -0.260000 -1.579142
0.403587 -0.260000 1.700346
-1.710325 -0.260000 0.672656
0.953327 0.211081 1.000000
-1.000000 -0.108780 -0.863397
0.904977 0.250000 0.630999
0.137149 0.250000 -0.845332
-0.820652 -0.250000 -0.938019
0.067240 -0.260000 -1.255792
0.991478 -0.260000 -1.929851
-0.569686 -0.217783 1.000000
-0.336215 -0.250000 0.300671
-1.500806 -0.260000 -0.989583
-0.342536 -0.250000 0.492011
0.021569 -0.250000 0.742580
-1.995458 -0.260000 -1.668859
0.996091 0.250000 0.137542
0.662080 -0.260000 1.913412
-1.000000 -0.189067 -0.436320
1.244096 -0.260000 0.108514
1.624090 -0.260000 1.172451
-0.284223 -0.260000 0.356237
-0.069198 0.250000 -0.142043
0.863096 -0.260000 1.130279
1.000000 0.151126 -0.115591
-1.055550 -0.260000 -0.575539
1.874860 -0.260000 0.099849
0.704640 -0.165914 -1.000000
-0.680945 -0.260000 -0.776874
0.584562 0.250000 0.872833
-0.969749 -0.260000 1.080548
0.616703 0.250000 -0.426559
-0.350866 -0.260000 -1.580631
0.287186 0.188994 1.000000
-0.755540 -0.260000 -1.082922
-0.297056 -0.260000 1.714484
0.866181 -0.260000 -1.189125
0.166654 -0.260000 -1.127416
-1.000000 -0.226066 -0.625914
-0.665226 0.250000 -0.988718
0.326630 0.250000 -0.940346
0.317912 -0.260000 -1.866129
-0.981397 -0.250000 -0.091118
-0.063068 -0.260000 -0.953277
-0.885479 -0.260000 -1.752879
-0.201481 0.250000 -0.110325
1.673314 -0.260000 -0.604351
-0.143199 -0.260000 1.731426
0.645965 -0.204288 1.000000
-1.118308 -0.260000 -0.999215
0.591762 -0.250000 0.182297
-1.827049 -0.260000 -1.446541
0.268657 -0.250000 -0.524311
-1.771003 -0.260000 -1.939706
-0.942347 0.250000 0.863171
-1.000000 -0.107889 0.116391
1.740314 -0.260000 1.954804
-0.732222 -0.250000 -0.138199
-1.985343 -0.260000 1.013959
-0.059853 -0.250000 -0.700654
1.306066 -0.260000 0.753351
-1.000000 0.136623 0.151112
0.346438 -0.260000 -1.087697
1.781597 -0.260000 0.470701
-0.945510 -0.260000 -0.941604
-0.631352 -0.260000 -0.267367
1.415935 -0.260000 1.452123
0.834481 -0.250000 0.219933
-0.159391 -0.250000 -0.601081
1.444423 -0.260000 -1.973391
-1.972050 -0.260000 0.935909
0.832342 -0.260000 -1.283477
0.729583 -0.260000 0.720342
-1.706816 -0.260000 -1.288160
0.360332 -0.260000 -0.393240
0.823766 -0.098786 1.000000
1.000000 0.069565 -0.343964
1.132203 -0.260000 0.858018
-0.266131 -0.260000 0.241962
0.893731 -0.250000 0.673544
0.062524 -0.260000 -1.612624
0.746282 -0.260000 -1.262513
0.506320 -0.250000 -0.456152
-1.153777 -0.260000 -0.708940
1.456723 -0.260000 0.021972
0.539999 0.140390 1.000000
-0.485826 -0.145233 1.000000
-0.426854 -0.260000 0.163240
1.000000 -0.012148 0.769983
-1.024249 -0.260000 -0.528247
0.066502 -0.260000 -0.126248
-1.975479 -0.260000 -1.770769
-0.782911 -0.250000 -0.343835
-0.935502 -0.250000 0.459066
0.731224 -0.260000 -0.434966
-0.933715 0.250000 0.921439
0.005203 -0.250000 -0.315746
0.132850 -0.260000 -1.609696
-0.577099 -0.260000 -0.413887
-1.090436 -0.260000 -1.085149
-0.802696 0.250000 0.541970
-0.239439 0.058828 1.000000
0.610886 -0.260000 1.290619
-1.000000 -0.223562 0.278085
1.893058 -0.260000 -0.983972
-0.457899 -0.250000 -0.720976
0.120431 -0.260000 -1.515185
1.318545 -0.260000 -0.607149
-0.326023 -0.260000 -0.194424
-0.910271 0.250000 -0.388287
1.000000 0.176268 -0.746733
0.658299 0.250000 0.347538
-1.626984 -0.260000 -0.655884
-1.000000 -0.021667 0.362031
-1.254808 -0.260000 1.692207
1.485810 -0.260000 0.151502
-0.630263 -0.260000 -1.933631
-0.772165 -0.250000 -0.977964
0.797130 0.250000 -0.482065
-0.302723 -0.260000 -0.577291
1.548820 -0.260000 0.996040
-1.526809 -0.260000 1.196232
1.903284 -0.260000 -1.319506
1.539832 -0.260000 1.787268
1.240000 -0.260000 0.229337
-0.199649 -0.260000 -0.528047
0.720939 -0.250000 -0.324101
-0.001589 -0.250000 -0.489013
-0.488083 0.250000 0.076984
-0.828431 -0.260000 -1.082649
-0.291245 -0.260000 -1.802379
-1.716281 -0.260000 -0.445552
0.095208 -0.250000 -0.739725
-0.328009 -0.260000 -0.012416
0.822468 0.250000 -0.413380
0.136809 0.250000 0.101721
-1.230481 -0.260000 0.302901
0.061694 -0.260000 0.797953
-1.881626 -0.260000 0.589868
0.671609 -0.260000 -1.004790
0.644026 -0.260000 1.931643
-0.123604 0.250000 -0.843031
-0.151397 -0.250000 -0.092843
1.948425 -0.260000 -1.445192
-0.862156 -0.260000 -0.450213
1.000000 -0.127793 -0.186593
-1.121456 -0.260000 1.891868
-0.019542 -0.250000 0.169456
0.786791 -0.260000 0.015003
0.712102 -0.146236 -1.000000
1.302216 -0.260000 -1.863903
-0.251015 0.250000 0.153152
0.569875 -0.260000 0.920385
1.161753 -0.260000 1.956943
-0.467726 -0.260000 -1.651247
-0.968108 -0.260000 -1.474693
-0.436766 0.250000 -0.048378
0.244014 -0.250000 0.477517
0.756291 -0.129025 -1.000000
1.111860 -0.260000 1.388468
-1.269508 -0.260000 0.193108
1.096428 -0.260000 0.593992
1.379272 -0.260000 -1.149012
1.865692 -0.260000 -0.441829
-0.721531 -0.260000 0.034170
-1.241667 -0.260000 0.076489
-0.181301 -0.260000 -1.798439
0.110168 -0.250000 0.752298
0.658935 0.250000 0.923996
-1.000000 -0.068380 0.745688
-0.440144 -0.260000 1.201235
1.000000 0.194162 -0.686374
-0.072211 -0.260000 -0.982304
0.200291 -0.260000 0.238296
-1.825142 -0.260000 -0.046347
1.215290 -0.260000 -1.513418
-0.531000 -0.260000 -0.899889
0.204561 -0.260000 0.024217
-1.871363 -0.260000 -1.088379
1.013557 -0.260000 -0.749648
0.566270 -0.260000 -0.037631
-0.469819 0.250000 0.665595
-1.814479 -0.260000 0.663186
1.865115 -0.260000 -1.099416
0.716772 -0.260000 1.889760
0.944433 0.250000 0.662516
-1.491241 -0.260000 -1.601362
1.200654 -0.260000 1.481031
-0.548275 -0.150533 1.000000
-1.552749 -0.260000 -0.365653
-1.257757 -0.260000 -0.672582
1.805932 -0.260000 0.830985
-1.391246 -0.260000 1.323290
1.690618 -0.260000 1.612275
0.373520 0.250000 -0.248973
0.558063 -0.260000 0.489806
-0.560214 0.250000 0.908171
1.000000 0.217623 -0.063303
0.941620 0.250000 0.249439
-1.953411 -0.260000 -0.135123
-1.448969 -0.260000 0.012847
-0.046428 0.250000 -0.211581
0.650572 -0.260000 -1.192224
1.000000 -0.244074 0.290172
1.108984 -0.260000 -1.642446
-0.148644 -0.162805 1.000000
0.906009 -0.260000 1.779707
-0.236198 -0.250000 -0.365221
-1.000000 -0.080157 0.513318
-1.820246 -0.260000 1.174694
-1.730350 -0.260000 0.760910
1.357439 -0.260000 -0.497554
0.734566 -0.260000 0.078270
0.494396 -0.250000 0.997954
1.356858 -0.260000 -0.164886
1.328781 -0.260000 1.698296
-0.600224 -0.250000 0.635353
-0.354690 -0.260000 -0.165499
-1.125138 -0.260000 0.630784
0.423279 -0.250000 0.929955
0.666600 -0.260000 -1.052860
0.304329 -0.260000 -0.618398
1.000000 -0.089935 0.987812
-0.669804 -0.250000 -0.194375
1.423920 -0.260000 -1.274037
1.319581 -0.260000 -0.587687
1.928183 -0.260000 1.075171
1.000000 -0.117386 0.716808
-0.193090 -0.260000 0.038178
-0.884265 -0.260000 -1.772655
-1.181105 -0.260000 -0.176467
0.780006 -0.039315 -1.000000
-0.459009 0.250000 -0.194620
-0.324518 -0.260000 -1.186706
-0.453302 -0.046130 1.000000
1.423922 -0.260000 -0.725508
0.570619 -0.260000 1.457133
-0.073029 -0.250000 0.723220
-0.607058 0.250000 -0.735841
0.722310 -0.260000 1.430513
-0.364617 -0.250000 0.504963
-1.000000 -0.135570 -0.490751
1.352528 -0.260000 -1.893208
1.853926 -0.260000 -1.538566
0.742133 -0.250000 0.080119
0.117564 0.250000 -0.267453
0.974036 -0.260000 -0.380946
0.150703 0.250000 -0.609048
0.170354 -0.260000 -0.107212
-0.840005 -0.260000 0.414637
-1.372275 -0.260000 -1.039765
0.878321 0.250000 0.357877
-0.159733 -0.250000 -0.982780
-1.695037 -0.260000 -1.794476
-1.000000 -0.042918 0.723436
0.679357 0.250000 0.891954
0.922838 -0.260000 -0.777412
-0.403462 0.250000 -0.226699
-0.536649 -0.250000 0.066114
1.000000 -0.042280 -0.141878
-0.685699 -0.124631 -1.000000
0.650398 0.250000 0.835935
-0.065822 -0.250000 0.829967
1.000000 0.092795 0.315575
1.000000 -0.190908 0.188820
-1.143364 -0.260000 -1.634764
-0.997168 0.250000 0.399944
1.710464 -0.260000 1.989460
-0.134029 -0.250000 -0.445330
1.000000 -0.048394 -0.544469
-1.091469 -0.260000 0.715100
1.237310 -0.260000 -1.019526
-0.420723 -0.260000 1.125950
-0.959184 0.250000 0.624119
-1.000000 0.237949 0.784461
0.630737 -0.250000 0.623214
1.966341 -0.260000 -1.777773
-0.590246 -0.260000 0.181391
1.719402 -0.260000 1.461961
0.667323 0.250000 0.175929
0.828551 -0.260000 -1.132947
1.066451 -0.260000 -0.585660
-1.180038 -0.260000 1.698082
0.279886 -0.260000 0.652020
-0.308650 -0.250000 -0.214875
1.994198 -0.260000 1.192593
-0.734707 -0.260000 1.282837
1.070145 -0.260000 0.901047
-0.882819 -0.260000 -0.916989
-0.468958 -0.250000 -0.666737
0.524523 0.250000 -0.442627
0.122192 0.021593 1.000000
-0.072417 -0.260000 -1.856647
0.737401 0.250000 -0.896006
1.422240 -0.260000 -0.007062
-0.022110 -0.250000 0.478265
-0.361616 -0.260000 0.801709
-0.665692 0.144213 1.000000
-0.685527 -0.260000 -0.004653
0.875893 -0.250000 -0.961732
0.237310 0.037579 1.000000
1.131441 -0.260000 -0.819597
1.098023 -0.260000 -0.612099
0.644392 -0.260000 0.730164
0.870971 -0.260000 -0.030327
1.346636 -0.260000 -0.224356
0.624670 -0.122983 1.000000
0.187834 -0.001678 -1.000000
-0.680796 -0.250000 0.584058
0.255985 0.162351 -1.000000
0.444805 -0.260000 0.304498
-0.478145 -0.260000 1.754034
-0.630489 -0.250000 0.219699
0.701710 -0.260000 -1.449213
1.149581 -0.260000 -0.670249
1.461855 -0.260000 1.418296
-0.803975 -0.250000 0.541794
1.206805 -0.260000 1.324275
1.948445 -0.260000 0.160280
-1.255626 -0.260000 1.075208
0.552656 -0.250000 0.104850
0.645806 -0.260000 -0.508326
0.565821 -0.260000 1.797400
1.169140 -0.260000 -1.175050
1.403561 -0.260000 1.845758
0.053791 -0.260000 0.479820
0.002180 -0.260000 -1.717447
-0.639005 0.250000 0.929907
1.442528 -0.260000 0.129906
0.423101 -0.250000 -0.852635
1.000000 -0.005769 -0.314987
-1.000000 -0.125657 -0.684849
1.598639 -0.260000 -0.451677
-0.906535 -0.250000 -0.480975
0.410392 -0.250000 -0.592526
0.412331 -0.260000 0.202358
-1.830804 -0.260000 1.881499
-1.525270 -0.260000 -1.707510
0.101358 0.180640 -1.000000
-1.699375 -0.260000 -1.263082
-0.949297 0.056671 -1.000000
-0.769941 -0.260000 -1.651306
-0.055471 -0.260000 -0.362400
-0.744551 0.250000 -0.376200
0.981490 0.143152 1.000000
1.680794 -0.260000 -0.346586
-1.750607 -0.260000 0.792211
0.549758 0.250000 0.196195
0.957672 -0.260000 1.517924
1.874616 -0.260000 1.962370
0.076285 -0.260000 1.390114
0.088960 -0.260000 -0.729317
-0.527804 -0.250000 -0.082744
-0.529641 0.250000 0.374348
0.737731 -0.260000 1.423335
0.252957 -0.250000 0.542620
0.896001 -0.260000 0.346812
-0.396450 -0.260000 -0.056338
0.728260 -0.250000 -0.722573
1.317285 -0.260000 0.638307
-0.128108 -0.260000 -0.728029
-0.505362 -0.260000 1.840396
0.997335 0.250000 0.941031
-0.925719 0.250000 0.257278
1.000000 -0.131797 -0.840941
0.166657 0.250000 -0.619468
-1.355277 -0.260000 1.697003
0.467379 -0.260000 -1.227114
-0.108878 -0.260000 1.632099
-1.337896 -0.260000 1.596000
1.018547 -0.260000 0.257749
-1.343921 -0.260000 -1.321826
0.319894 0.250000 -0.150540
0.874652 0.250000 0.330965
0.873380 -0.260000 -0.945401
-0.066309 -0.260000 0.291198
0.814989 0.081265 -1.000000
1.000000 0.183679 0.621644
-1.993742 -0.260000 1.465955
0.875409 -0.250000 0.374112
-0.748142 -0.260000 1.754316
-0.896803 0.250000 0.928539
-1.697677 -0.260000 0.442914
-1.438611 -0.260000 0.351542
0.401954 0.048001 1.000000
-0.643659 -0.260000 -1.760875
0.005468 -0.260000 1.246155
0.940277 -0.260000 1.734022
-0.187748 0.250000 0.782623
-0.652424 0.250000 0.153043
0.011645 -0.250000 -0.859911
0.563990 -0.260000 -0.008570
-1.000000 -0.148258 0.561349
0.374451 -0.260000 1.422929
-1.486142 -0.260000 0.995745
0.909430 -0.260000 -0.756437
-1.430595 -0.260000 1.823115
1.590662 -0.260000 -1.466098
0.102077 -0.260000 -1.670736
-0.977779 -0.250000 -0.147755
-1.102420 -0.260000 -1.022771
-1.000000 -0.230057 0.612586
0.122975 -0.260000 0.303851
-1.523387 -0.260000 -0.493886
0.260594 -0.260000 -0.165361
0.905711 -0.260000 1.383701
-0.354643 -0.250000 -0.551306
0.967471 -0.260000 -1.053675
1.896968 -0.260000 -0.329174
-0.510303 -0.260000 0.047671
-0.561024 -0.260000 1.419364
0.763025 -0.260000 -1.224459
-0.085374 -0.260000 -0.861204
1.000000 0.133801 -0.075424
-1.912134 -0.260000 0.971051
-0.707717 0.250000 0.698980
0.799360 -0.260000 -1.565668
0.831679 -0.260000 -1.155479
-0.598220 0.001977 1.000000
-0.692150 -0.001089 1.000000
-0.492159 -0.260000 -1.425980
1.199905 -0.260000 -1.641919
-1.000000 0.023352 -0.712485
-0.319162 -0.260000 -1.594456
1.000000 -0.079452 -0.325164
1.043809 -0.260000 0.057381
0.579896 -0.260000 -0.710335
0.418332 -0.250000 0.068515
-0.231132 -0.260000 -1.580764
-0.858860 -0.250000 -0.693491
-0.452207 -0.250000 -0.345449
-1.782762 -0.260000 -0.658216
-0.839742 -0.250000 0.977304
-1.018646 -0.260000 0.109734
-0.698095 -0.260000 -0.346657
0.928385 -0.260000 -1.686950
0.107052 0.202161 -1.000000
-0.123614 -0.260000 0.727240
-0.467334 -0.260000 0.101767
-0.946853 -0.260000 -1.624944
-0.761421 -0.250000 -0.539741
0.657899 -0.260000 1.357496
-0.438913 -0.250000 -0.462572
0.572349 -0.260000 -0.728833
-1.002373 -0.260000 -0.504831
0.410379 0.171766 -1.000000
-1.494250 -0.260000 -0.463539
-0.913237 -0.260000 -0.337742
-1.729976 -0.260000 0.067784
-0.608514 -0.250000 -0.357155
-0.969238 -0.250000 0.234561
1.142932 -0.260000 1.104983
-0.547616 0.211794 -1.000000
1.355621 -0.260000 -1.656900
-0.947467 -0.250000 -0.966822
0.053788 -0.260000 0.194825
-0.553303 0.250000 -0.164101
-0.764237 -0.168208 1.000000
0.123087 0.250000 0.661738
-1.375001 -0.260000 -0.315792
-0.836786 0.250000 -0.594229
-1.594448 -0.260000 -0.306484
1.000000 0.069586 0.214981
-0.820928 -0.260000 0.386146
-1.450921 -0.260000 0.555901
0.390515 0.250000 -0.055859
-0.948229 0.250000 0.853529
-0.831338 0.250000 0.742603
-1.000000 -0.074307 0.920910
-1.605724 -0.260000 -1.912169
-1.705473 -0.260000 0.546248
-1.181373 -0.260000 0.491392
-0.332326 0.108951 1.000000
0.033173 -0.260000 -0.386617
0.106955 -0.250000 0.978865
0.558487 -0.260000 0.845836
1.603314 -0.260000 0.307843
-0.859380 -0.260000 -0.504134
0.390772 0.250000 -0.008179
0.855469 -0.250000 -0.393566
0.580272 0.250000 0.816205
-0.943589 -0.260000 1.803072
-1.795431 -0.260000 0.096201
0.271998 -0.260000 -0.570995
1.398445 -0.260000 0.049803
-0.770294 -0.260000 0.741358
-0.970203 0.250000 -0.228075
-1.435620 -0.260000 -0.550596
0.458008 0.196076 1.000000
0.981582 -0.260000 0.031160
0.551388 0.250000 -0.634907
0.252787 0.250000 -0.689628
0.133645 0.250000 0.955255
0.571909 0.250000 0.045334
-0.279763 -0.260000 -0.108952
0.548046 -0.260000 1.626262
0.473422 -0.250000 0.727680
0.391604 -0.250000 0.962670
-0.343469 -0.260000 1.533460
-0.483436 -0.260000 -1.879667
-0.696942 0.250000 -0.537196
0.321427 0.250000 -0.419465
-0.525087 -0.260000 1.447470
-1.989363 -0.260000 -1.084540
1.379760 -0.260000 0.908471
1.520242 -0.260000 -0.326744
-0.071461 -0.260000 0.971428
0.286097 -0.250000 -0.984386
0.077382 -0.260000 0.518060
-0.537039 -0.260000 0.240244
-0.620360 -0.121323 -1.000000
1.000000 0.239473 -0.030818
1.526436 -0.260000 0.158182
0.841681 0.250000 -0.697819
-1.658195 -0.260000 -0.476754
0.856436 -0.260000 -0.110461
-0.613650 -0.250000 -0.503631
1.282684 -0.260000 -1.745076
1.324428 -0.260000 -0.072030
1.529187 -0.260000 -1.668908
-1.447641 -0.260000 -0.117965
0.743990 -0.260000 -1.328881
-0.402935 -0.260000 -1.294811
1.134210 -0.260000 0.588287
-0.167710 -0.250000 0.187585
-1.000000 -0.221149 0.669500
0.973427 -0.260000 -0.918985
0.369954 0.250000 -0.599060
-0.476439 0.250000 -0.457131
1.978027 -0.260000 1.666546
1.260985 -0.260000 0.438392
-1.504423 -0.260000 1.921124
1.641356 -0.260000 1.613093
1.684760 -0.260000 -0.235978
-0.769266 -0.260000 -1.388218
-1.790885 -0.260000 -0.636051
0.528338 -0.260000 1.218407
-1.178156 -0.260000 -0.629938
0.757133 -0.250000 0.280252
-1.659448 -0.260000 1.448034
-1.380301 -0.260000 -1.625814
0.313503 -0.250000 -0.476968
-1.844447 -0.260000 1.482372
1.699820 -0.260000 -0.288894
-0.699447 0.250000 0.182507
-0.270457 -0.260000 -1.310054
0.179161 0.088425 -1.000000
-0.901574 0.250000 0.958184
0.853445 -0.260000 -0.707607
0.105753 -0.260000 -0.442943
0.517889 0.250000 0.537965
-1.033505 -0.260000 0.777194
1.986397 -0.260000 1.454888
0.491411 -0.043222 -1.000000
0.887521 0.250000 -0.507984
-0.845056 0.250000 0.680703
1.906938 -0.260000 1.412934
1.542396 -0.260000 -1.949845
0.109713 0.250000 -0.469401
-0.651383 -0.188066 1.000000
0.949574 -0.260000 -1.788215
-1.000000 -0.171923 0.810399
0.808331 0.250000 0.785297
0.663482 -0.260000 0.333200
0.127938 -0.260000 1.441840
1.881184 -0.260000 -0.808344
0.737758 -0.260000 1.162068
0.055236 -0.250000 0.518838
-0.828314 0.249594 1.000000
1.000000 0.149054 -0.033481
1.784905 -0.260000 0.784418
-1.723806 -0.260000 1.315368
-1.253254 -0.260000 -1.358256
-0.476741 -0.250000 -0.553507
-1.184216 -0.260000 -1.159037
-0.679231 -0.048094 -1.000000
-0.662770 -0.250000 0.371230
0.570142 -0.260000 -0.472271
-0.177310 -0.250000 0.939613
-1.199553 -0.260000 -0.845175
-1.000000 -0.201168 0.244785
-0.948041 -0.260000 0.733905
-0.625225 -0.211387 -1.000000
-1.237711 -0.260000 0.214633
0.533843 -0.124320 -1.000000
0.002149 -0.221091 1.000000
0.430487 0.250000 0.729601
0.923652 -0.260000 1.011556
-1.988571 -0.260000 -1.854644
0.815913 0.250000 0.860125
-1.283304 -0.260000 -1.774312
-0.908325 0.250000 -0.613100
0.934415 -0.250000 0.183511
1.000000 0.080764 -0.897820
-1.825919 -0.260000 1.234549
1.000000 -0.247198 -0.039714
-0.301032 -0.260000 0.587077
-1.528945 -0.260000 -1.380856
0.944086 0.193639 -1.000000
-0.433867 -0.260000 -1.322725
0.683246 0.160886 -1.000000
0.404811 -0.260000 -1.186046
-0.596767 -0.260000 0.161338
-1.000000 -0.024751 0.826304
0.317501 0.250000 0.289694
0.383011 -0.260000 1.892086
-0.691339 -0.260000 -1.331790
1.720330 -0.260000 -1.854813
1.259508 -0.260000 1.746999
1.359278 -0.260000 -1.809023
-0.620217 -0.250000 0.104605
0.915333 -0.250000 0.831631
-1.000000 0.092628 0.889672
1.976019 -0.260000 -0.226734
1.597523 -0.260000 -0.191170
0.151762 -0.250000 -0.095691
-1.763995 -0.260000 -1.235183
-1.702628 -0.260000 1.190675
0.313597 -0.063012 -1.000000
0.886156 -0.260000 1.442311
-0.266454 -0.250000 -0.193901
0.200194 0.140831 1.000000
0.802784 0.250000 -0.844219
-0.803985 -0.260000 -1.059355
0.899774 0.250000 -0.724873
-0.314904 0.250000 0.400227
-0.650844 -0.250000 0.615960
0.903964 0.080700 1.000000
-0.960220 -0.260000 1.853082
-0.829298 0.250000 -0.569173
-0.938061 -0.260000 -0.940761
-0.046852 -0.230845 1.000000
1.372240 -0.260000 -0.482332
1.654403 -0.260000 1.202939
-1.173590 -0.260000 0.600399
0.486789 -0.260000 0.318792
0.024016 -0.260000 -1.868735
-0.744763 0.250000 0.197250
0.660232 0.250000 0.739697
1.238989 -0.260000 -1.756341
0.001810 0.250000 -0.270904
-0.055874 -0.260000 0.705992
0.843635 0.250000 -0.060912
-0.018719 0.250000 0.514811
-0.809317 -0.250000 -0.401207
0.405720 -0.260000 -0.970644
-0.007389 -0.260000 -1.922012
0.712608 -0.260000 -1.901114
-0.705078 -0.260000 0.053959
-0.945257 -0.260000 0.718774
0.917844 -0.260000 -0.536848
1.673395 -0.260000 -0.725255
-0.594716 0.250000 0.974965
-1.321471 -0.260000 -1.552890
-1.000000 -0.013238 -0.453627
-0.936173 -0.075214 -1.000000
1.134409 -0.260000 -0.607400
0.578964 -0.260000 -1.152853
1.690761 -0.260000 -0.968923
-1.768522 -0.260000 1.517629
-1.411845 -0.260000 -1.831983
0.020258 -0.229533 1.000000
0.187240 -0.260000 -0.939147
-0.626324 0.250000 -0.581909
-1.000000 0.013118 0.657737
-0.411709 -0.260000 -1.552806
0.999967 0.250000 -0.893012
1.823075 -0.260000 0.436097
0.843931 -0.250000 -0.609194
0.020165 -0.260000 1.602746
0.090362 -0.260000 1.326541
-1.987787 -0.260000 0.376108
-0.638320 -0.260000 -1.451393
-0.887204 -0.260000 -1.973470
0.045646 -0.129180 1.000000
-0.710657 -0.260000 -0.818750
-0.918764 -0.250000 -0.527176
-0.865240 0.250000 -0.711995
-1.534207 -0.260000 -0.029891
0.986590 -0.250000 -0.006425
-0.057409 -0.008314 1.000000
-0.947025 0.129962 -1.000000
1.715058 -0.260000 0.942515
-1.698340 -0.260000 -0.582264
-0.693598 0.203041 -1.000000
0.575280 0.014405 1.000000
-0.358656 -0.260000 -1.660815
-0.017693 0.250000 0.794662
-1.000000 0.181924 -0.182812
1.151851 -0.260000 0.394951
0.972308 -0.260000 1.723713
-0.632421 0.250000 0.511427
-0.106426 0.250000 -0.368805
0.430919 -0.250000 -0.873368
0.107032 -0.250000 0.050482
1.159574 -0.260000 -0.110443
-0.454095 0.250000 -0.472346
-1.765176 -0.260000 -0.040641
0.266331 0.250000 -0.717102
0.801082 -0.260000 0.847193
0.044520 0.250000 0.105459
0.604271 -0.250000 -0.647351
0.345048 -0.260000 -0.369069
0.100928 -0.260000 -1.911563
0.208334 -0.260000 0.513700
-1.398208 -0.260000 0.595190
-1.249864 -0.260000 -1.434136
0.229737 0.250000 -0.192348
-1.085452 -0.260000 -0.632210
0.799497 0.188782 1.000000
-0.246108 -0.250000 0.412969
1.681301 -0.260000 -0.787381
-0.625519 0.151262 1.000000
-0.770143 -0.250000 0.872136
0.122580 -0.260000 1.537755
-1.354931 -0.260000 1.428081
0.474551 -0.250000 0.868262
1.990881 -0.260000 0.135514
-0.319960 -0.250000 0.658450
1.891481 -0.260000 -1.012425
-0.145645 -0.250000 0.753844
-0.945944 -0.260000 0.118726
-1.000000 -0.213062 -0.276513
-0.773357 -0.250000 -0.378661
-1.486465 -0.260000 0.337707
1.716467 -0.260000 1.080349
0.935685 0.250000 0.056424
-0.859917 0.250000 0.528121
-0.488365 0.250000 0.693564
0.006998 -0.260000 -1.233503
-0.993259 0.250000 0.854612
-0.107451 -0.260000 -1.148245
0.384458 0.250000 0.988253
-1.788790 -0.260000 -1.395626
0.339406 -0.260000 1.013541
0.725656 0.250000 0.647401
-0.457231 -0.260000 -1.060294
-0.909576 0.250000 -0.911078
0.905800 0.250000 0.896168
0.246528 -0.250000 -0.371053
-0.905878 -0.250000 -0.255560
-0.597346 -0.260000 1.130378
-0.315842 -0.260000 -1.487862
0.546819 0.139512 -1.000000
1.565941 -0.260000 -0.610961
-1.239239 -0.260000 -0.206187
-0.353757 -0.260000 -1.165918
-1.535622 -0.260000 0.124400
0.165027 0.250000 0.469163
0.249506 -0.250000 0.978960
0.336528 0.250000 0.953813
-0.908417 -0.250000 -0.517170
0.604307 -0.260000 0.870839
-0.231599 -0.260000 1.616399
0.062775 -0.260000 -0.903470
-1.720072 -0.260000 -0.777403
1.394854 -0.260000 -1.935479
-1.861930 -0.260000 -1.673086
-0.593310 0.250000 0.340634
-1.010404 -0.260000 0.038257
-0.046952 0.250000 -0.221068
0.258914 0.159231 -1.000000
-0.510329 0.250000 0.249106
0.075106 0.250000 -0.590812
1.460988 -0.260000 -1.640492
0.711123 0.250000 -0.483120
-1.199397 -0.260000 -1.230991
-0.193708 0.250000 0.987649
0.278456 -0.260000 0.189823
-1.089071 -0.260000 -1.555888
-0.381529 -0.250000 -0.582498
-1.770977 -0.260000 -0.566359
0.212888 -0.152731 1.000000
-1.050269 -0.260000 -0.948543
0.433499 0.192730 -1.000000
-1.452538 -0.260000 0.347524
0.774632 0.250000 -0.364912
-1.643015 -0.260000 0.698521
-1.899450 -0.260000 0.292747
-0.884578 -0.260000 0.888294
-0.894563 -0.260000 -1.750229
0.556851 0.250000 0.952070
0.435840 0.250000 0.843821
-0.647607 -0.250000 -0.551612
-0.358101 -0.250000 0.728138
0.400320 -0.260000 1.923491
0.376678 -0.260000 -1.214347
0.595932 -0.260000 -0.911847
-1.123426 -0.260000 -0.463862
0.880689 -0.260000 -0.700471
0.815967 -0.260000 -0.261654
-1.386885 -0.260000 -0.707180
-0.839182 -0.250000 0.853107
-1.217956 -0.260000 -0.969102
-1.678651 -0.260000 0.788180
0.629569 0.250000 0.120847
-0.422352 -0.250000 0.535928
-0.848201 -0.250000 -0.506378
-0.045418 -0.250000 -0.679524
1.255945 -0.260000 1.253058
-0.276490 -0.260000 0.623532
0.923236 0.250000 -0.741893
-0.681454 -0.260000 -1.333054
-0.267190 -0.260000 -1.044394
-1.466446 -0.260000 1.625753
0.544490 -0.235584 -1.000000
0.936688 -0.260000 -1.343669
-0.267398 0.250000 0.521585
-1.381648 -0.260000 -0.858810
0.020342 0.026658 -1.000000
-0.456832 -0.260000 -1.739063
-1.734337 -0.260000 -0.622938
-0.715427 -0.260000 0.778157
0.261625 0.250000 -0.739211
-0.451504 -0.260000 1.446450
0.067395 0.250000 0.412768
-0.919083 0.185276 -1.000000
0.559713 -0.169874 1.000000
-1.612998 -0.260000 -0.260724
0.095468 -0.260000 -1.849747
0.121777 -0.250000 0.648968
0.116736 0.002805 1.000000
-1.487587 -0.260000 -0.226894
-1.689068 -0.260000 0.219418
1.000000 -0.227758 -0.450953
-0.787146 -0.260000 -0.845576
0.333457 -0.250000 -0.159488
-1.504353 -0.260000 -1.890704
-1.935629 -0.260000 0.554936
-0.019164 -0.250000 -0.123476
1.000000 -0.078420 0.841045
-0.762509 -0.260000 0.810758
-0.836467 -0.250000 0.522137
0.573512 -0.260000 -1.989586
1.146928 -0.260000 -1.807893
1.844282 -0.260000 -0.571467
-1.096814 -0.260000 1.343820
-0.326345 -0.260000 -1.860453
-1.000000 -0.000220 0.214375
-1.986053 -0.260000 -0.046403
0.723034 0.250000 0.242910
-1.458206 -0.260000 -1.622112
0.999085 -0.260000 0.356325
1.000000 0.076707 -0.434488
1.827402 -0.260000 -1.161249
1.000000 -0.135804 0.900674
-1.049841 -0.260000 0.520396
0.098407 0.250000 0.154708
0.558012 -0.260000 0.208350
-0.223447 0.250000 -0.924158
1.833653 -0.260000 -1.003407
-0.257006 -0.250000 -0.114886
-1.368155 -0.260000 -0.843215
-1.182037 -0.260000 -1.572620
-1.452188 -0.260000 -0.506716
-0.226923 -0.260000 -1.499015
0.554120 -0.260000 0.297661
0.306860 0.250000 -0.748705
0.022622 -0.250000 0.625953
0.949072 0.250000 0.945165
1.000000 -0.052840 -0.626741
0.299562 -0.260000 -0.118284
-0.245355 0.250000 0.436448
-0.704186 -0.260000 -0.562812
0.928474 -0.250000 0.185368
1.742655 -0.260000 0.657772
-0.584760 -0.250000 -0.051887
0.861299 0.250000 0.187549
-0.198757 -0.250000 -0.785323
1.473692 -0.260000 1.771726
0.398764 0.250000 -0.987032
-0.703608 -0.260000 -1.248596
-0.835357 -0.250000 -0.519019
-1.000000 -0.015069 -0.661030
-1.750642 -0.260000 -0.151321
-1.588792 -0.260000 -1.064741
0.153635 -0.260000 0.633689
-0.487973 -0.260000 -0.754725
0.390154 -0.250000 -0.488629
1.629604 -0.260000 -1.002420
0.750713 -0.250000 0.581658
1.109484 -0.260000 -1.055884
-0.427259 -0.260000 -0.261436
-0.037521 -0.260000 1.304288
0.707424 0.250000 -0.984404
1.734699 -0.260000 1.469209
0.362638 -0.260000 -1.388974
0.261063 -0.250000 0.835715
-0.574462 -0.260000 -0.673356
-1.000000 0.113875 -0.078972
1.000000 0.035464 -0.174910
-0.053367 -0.260000 -1.275603
-0.904064 -0.260000 -1.767189
0.042951 -0.250000 0.922080
1.903132 -0.260000 1.151541
-1.417001 -0.260000 0.723705
1.029737 -0.260000 0.881550
-0.437638 -0.250000 0.377838
0.563026 0.250000 -0.180314
1.954728 -0.260000 0.464526
0.822297 0.250000 -0.551567
-1.891777 -0.260000 -0.042464
-0.550826 -0.250000 -0.824218
-1.440105 -0.260000 0.811997
-0.791278 -0.250000 0.479926
1.428852 -0.260000 0.521676
0.199344 -0.260000 1.281200
-0.876380 -0.260000 1.941733
-0.976424 -0.260000 0.396741
-0.717986 0.250000 -0.003769
-1.000000 0.058715 0.885506
-0.728288 -0.260000 -0.939518
0.522882 -0.250000 -0.308891
0.248232 0.250000 -0.973142
-0.510378 -0.260000 0.548094
1.486471 -0.260000 -1.607408
-0.181371 -0.260000 0.275392
-1.542939 -0.260000 0.756162
-0.244989 -0.250000 0.939743
-1.095938 -0.260000 1.769087
1.770366 -0.260000 0.246875
0.200228 -0.250000 -0.481556
-0.572319 0.250000 0.537444
1.536886 -0.260000 -1.449484
-1.781863 -0.260000 0.069982
0.148690 -0.260000 -0.964686
-1.000000 -0.042165 0.064769
0.858156 -0.260000 -1.293016
-1.155640 -0.260000 0.162007
0.733604 -0.260000 -0.050120
-0.858178 -0.250000 -0.731831
-1.643434 -0.260000 -0.095960
1.098246 -0.260000 -1.938894
-1.492448 -0.260000 1.022745
-0.709753 -0.260000 -0.324306
-0.942093 0.250000 -0.385696
-1.282146 -0.260000 1.406276
-0.602527 -0.260000 1.004471
-1.379481 -0.260000 -1.314940
0.942708 -0.250000 0.746457
-0.619752 -0.250000 0.991509
0.813706 0.250000 -0.183016
-0.420687 0.250000 -0.199041
0.438932 0.250000 0.354211
0.300472 -0.250000 -0.501935
-0.388839 0.250000 0.449593
1.357291 -0.260000 -1.448309
0.605261 -0.260000 0.154992
-0.835192 -0.260000 0.867514
-1.179155 -0.260000 -1.634093
0.689920 -0.260000 0.343842
-1.850014 -0.260000 -0.400824
-0.219555 -0.250000 -0.827618
1.139008 -0.260000 1.964203
1.446498 -0.260000 -0.645310
0.160958 -0.260000 0.883312
-0.897138 -0.260000 0.439646
1.036950 -0.260000 -1.396188
0.488841 0.250000 -0.622495
-0.455335 0.250000 -0.096783
0.725802 0.250000 -0.590562
0.412646 -0.260000 -0.013062
-0.249960 -0.260000 -1.856146
0.086037 -0.260000 -0.797450
-0.808897 -0.260000 -1.348934
1.345251 -0.260000 1.659806
1.195932 -0.260000 0.653016
0.858666 0.250000 0.055529
0.548311 -0.260000 1.187802
-0.474961 0.250000 0.801794
1.575943 -0.260000 0.961909
1.709186 -0.260000 -1.883168
-1.857303 -0.260000 1.320712
-0.240651 0.250000 -0.325735
0.401097 -0.260000 -0.471158
-0.804277 0.250000 0.767786
0.455119 0.250000 0.064473
0.116521 -0.260000 -1.766501
-0.891616 -0.260000 0.464500
-0.020405 -0.250000 0.703640
0.898480 -0.260000 -1.642738
0.015676 -0.260000 -0.802166
-0.810547 -0.260000 -0.144967
-1.952416 -0.260000 0.843126
-1.041091 -0.260000 -1.642518
-1.390674 -0.260000 1.159792
-1.079928 -0.260000 1.914940
-1.000000 0.000626 0.425831
-1.000000 -0.117883 0.969350
0.380297 0.157366 -1.000000
-0.943008 0.250000 0.009378
-0.891615 0.250000 0.978763
-1.822620 -0.260000 -1.978354
-0.590475 -0.260000 -0.880011
-1.564741 -0.260000 1.823635
-0.177392 0.223454 1.000000
-0.182105 -0.250000 -0.726290
-0.241688 -0.260000 0.199829
0.017926 -0.260000 -0.898555
-1.337943 -0.260000 1.063371
0.406842 -0.260000 0.093712
0.035227 -0.260000 -0.477840
0.696911 -0.260000 1.730617
1.000000 -0.128426 0.556927
1.610368 -0.260000 -1.843163
-0.950588 -0.250000 0.718808
0.763502 -0.250000 0.188115
-1.831687 -0.260000 1.469828
-0.486448 -0.260000 -1.384964
0.867036 -0.225389 -1.000000
-0.817033 -0.260000 1.473886
-0.118805 -0.250000 0.749268
1.802156 -0.260000 -1.186813
-0.683086 0.034745 -1.000000
-1.377255 -0.260000 -0.568835
-0.108333 0.250000 0.208393
0.932703 0.250000 -0.992566
-1.690310 -0.260000 0.560392
0.627177 -0.260000 1.429066
-0.598451 -0.250000 0.660941
0.251150 -0.260000 0.050852
-0.138175 -0.260000 0.141241
1.044112 -0.260000 -0.426039
-0.123741 -0.250000 -0.589540
1.620639 -0.260000 -0.964622
-0.905849 -0.260000 0.089637
-0.542579 -0.250000 -0.623935
-0.038444 0.156900 1.000000
0.911562 0.250000 -0.937286
-0.721999 -0.160532 1.000000
0.884907 -0.003563 -1.000000
-0.253892 0.250000 0.820896
-0.925499 -0.250000 -0.493350
-0.517272 -0.260000 -0.124650
-0.596876 -0.250000 -0.893373
-0.576146 0.108572 1.000000
-1.805516 -0.260000 0.055328
0.015793 -0.260000 1.636027
0.165791 -0.250000 -0.017611
0.565921 0.250000 0.813995
1.330780 -0.260000 -1.916627
-1.000000 -0.146978 -0.105377
-1.000000 -0.127210 -0.988549
-0.616475 0.250000 0.964454
-0.138223 -0.260000 1.185094
0.119424 -0.260000 -0.050606
-0.926834 -0.260000 -1.113398
-0.171124 -0.260000 0.337293
0.073650 -0.250000 0.186760
0.073081 -0.260000 1.259483
-1.894521 -0.260000 1.783307
1.000000 -0.148114 -0.285075
-0.896577 0.250000 0.100384
-0.362060 -0.260000 1.870399
0.529557 -0.260000 -1.617091
0.098722 -0.250000 0.670472
0.060449 -0.250000 -0.795702
-0.144085 -0.260000 -1.155902
0.225532 0.250000 -0.337109
1.000000 -0.076974 -0.012528
-0.348508 -0.260000 -0.880760
0.189313 -0.079848 1.000000
0.039555 -0.250000 0.965736
-0.800488 -0.260000 -1.891054
-1.076129 -0.260000 0.561726
0.475037 -0.260000 -0.968368
0.251131 -0.250000 0.147153
0.659606 -0.260000 1.085858
0.894247 -0.260000 1.166503
-0.000652 -0.260000 -0.500045
-0.315255 -0.250000 0.897382
0.015927 0.250000 0.954179
-0.625098 -0.260000 -0.293129
0.242721 -0.245613 -1.000000
0.708233 -0.260000 -1.794376
0.171997 -0.260000 0.344292
-1.413186 -0.260000 1.469000
0.545975 -0.250000 -0.914209
-0.501551 -0.260000 0.075947
0.915321 0.250000 0.097838
0.276866 -0.250000 -0.114864
0.758465 0.250000 -0.780801
-0.558927 -0.250000 -0.881367
-0.948743 -0.250000 -0.022273
-1.476180 -0.260000 1.674272
-0.005958 0.250000 0.085814
-1.071629 -0.260000 1.330087
-0.554483 -0.250000 0.551245
-1.000000 0.071944 -0.254363
0.793987 0.250000 -0.975026
-0.764238 -0.250000 -0.900094
0.026142 -0.250000 -0.258550
1.450736 -0.260000 0.731947
1.563449 -0.260000 -0.609078
0.524030 -0.096771 -1.000000
0.497292 0.250000 -0.701757
0.215329 -0.243498 -1.000000
0.689543 0.050946 1.000000
-1.026547 -0.260000 -1.603363
-1.909867 -0.260000 -0.619284
0.649029 0.250000 0.564050
1.710138 -0.260000 -0.139568
0.492085 -0.260000 -1.473636
-0.167473 -0.260000 1.772932
0.797393 -0.250000 0.423525
-0.960927 -0.260000 -1.931441
-1.000000 -0.000672 -0.579390
0.515645 -0.250000 -0.871541
-0.215720 -0.250000 0.216768
-1.955375 -0.260000 0.925339
0.851433 -0.260000 1.072650
-0.010116 0.248718 1.000000
-0.838176 0.250000 -0.238969
-0.323667 -0.260000 -0.084558
-1.380051 -0.260000 0.493116
0.904893 -0.260000 -1.246229
-0.286733 -0.260000 0.427556
0.553794 -0.260000 -0.443017
-0.739119 0.025919 1.000000
0.167881 -0.250000 -0.208220
-1.795799 -0.260000 -1.984221
-0.045797 -0.260000 -0.957023
1.607256 -0.260000 -1.779458
-0.333554 -0.260000 1.604506
1.393237 -0.260000 -0.802041
1.617225 -0.260000 1.545910
0.997184 -0.250000 -0.651348
1.779657 -0.260000 1.761122
0.440178 -0.250000 0.388628
1.992908 -0.260000 -0.113905
0.666627 0.250000 0.622153
-1.767125 -0.260000 -1.937439
1.696673 -0.260000 1.705084
-0.378031 -0.260000 0.066453
0.615016 -0.260000 1.527158
1.337459 -0.260000 0.589018
0.394315 0.250000 0.332756
-0.361793 -0.260000 1.711862
-0.341444 -0.023504 1.000000
-0.124596 0.181179 1.000000
-0.024887 -0.260000 -0.507346
-1.650896 -0.260000 1.368910
0.886414 0.250000 0.330007
0.808604 -0.260000 1.871284
-0.091640 0.250000 -0.604473
-0.883300 0.250000 0.536328
0.114099 -0.250000 -0.695549
1.675241 -0.260000 -1.499998
-1.000000 0.109445 -0.943618
0.482979 -0.260000 0.045498
-0.464218 -0.260000 1.774624
1.000000 -0.163947 0.584317
0.463983 -0.260000 -0.496225
-0.986807 -0.260000 -1.201920
0.031188 0.033891 -1.000000
-1.000000 -0.155149 0.905669
0.608251 -0.250000 0.839970
0.690313 -0.250000 0.432838
-0.828903 -0.260000 -0.239090
-1.453345 -0.260000 -0.775424
-1.000000 -0.151363 -0.169776
-1.861199 -0.260000 -0.581628
-0.024821 -0.250000 0.164088
-0.262115 -0.250000 0.184323
0.337569 -0.250000 -0.889674
1.159352 -0.260000 0.408514
1.336015 -0.260000 -1.983719
0.057141 0.250000 0.900350
0.097252 0.250000 -0.920771
-0.782755 -0.101665 -1.000000
0.383140 0.250000 -0.920366
1.000000 0.154469 -0.913027
-1.000000 0.149897 -0.954718
1.747263 -0.260000 -1.230044
-1.712067 -0.260000 -0.304727
1.779734 -0.260000 -1.934804
-0.102229 -0.260000 1.815546
0.648865 0.126604 1.000000
1.224281 -0.260000 1.705708
1.191401 -0.260000 1.786660
-0.068931 -0.260000 1.577220
0.070146 0.250000 0.695203
-0.990619 -0.250000 0.394150
-1.042476 -0.260000 -0.780461
-0.144476 0.156776 1.000000
0.528214 -0.260000 0.448860
-0.987299 0.250000 -0.352991
0.342772 0.022271 -1.000000
-0.553775 0.250000 -0.807256
1.100338 -0.260000 1.323189
0.104978 -0.250000 -0.162259
0.321734 0.250000 -0.701744
0.999230 0.250000 0.555775
-0.295961 -0.260000 -1.956698
-1.628591 -0.260000 -1.378428
-1.030169 -0.260000 1.299219
0.706025 -0.250000 0.254661
0.035530 -0.250000 -0.162849
-0.855003 -0.260000 -0.094508
0.660693 -0.260000 0.181578
0.742270 -0.260000 -0.237958
0.765757 0.250000 0.011554
0.372030 -0.260000 -1.607553
0.247302 -0.260000 1.750521
0.386639 -0.260000 -0.745880
0.977750 -0.250000 0.616641
-0.973304 -0.260000 0.105925
-0.008108 -0.260000 1.258879
0.991432 -0.260000 -1.086146
-0.035208 -0.260000 0.717402
-0.853146 -0.260000 -0.358597
1.000000 0.249912 0.419605
1.536738 -0.260000 -0.334303
1.000000 0.085493 0.007293
0.678984 -0.260000 0.524212
-0.079445 -0.260000 -0.752648
-0.900402 -0.260000 -1.691981
1.000000 -0.011218 0.437220
0.083112 -0.250000 0.284414
1.000000 -0.196612 -0.774010
1.388907 -0.260000 0.737096
-0.906664 -0.260000 1.808781
1.959941 -0.260000 0.534542
-0.195299 0.250000 0.933256
-1.604556 -0.260000 -1.343883
0.937789 0.250000 -0.568231
-0.228823 0.250000 -0.147672
-0.472802 -0.250000 -0.671574
0.927100 -0.260000 0.655639
-0.878906 -0.260000 1.652994
-1.115127 -0.260000 0.679310
0.425011 -0.003209 -1.000000
-0.674058 0.250000 0.166923
-0.516985 0.250000 -0.397851
0.623476 -0.260000 -1.156605
0.786809 -0.260000 0.305890
-1.847821 -0.260000 -0.364177
-1.000000 -0.229737 0.457442
-1.000000 0.118724 0.563044
1.952291 -0.260000 1.989383
-0.340267 -0.250000 0.548265
0.703221 0.250000 0.685166
-1.661535 -0.260000 1.366387
-1.225058 -0.260000 -1.131635
-1.210116 -0.260000 1.706252
-1.000000 -0.185749 0.514569
0.002695 -0.260000 -0.415417
1.140993 -0.260000 -1.634106
-0.536338 -0.099451 -1.000000
-1.113571 -0.260000 1.107957
-1.761424 -0.260000 -0.228680
-1.831409 -0.260000 0.805056
0.332439 -0.260000 0.428388
0.880284 -0.260000 1.025264
-0.505438 0.250000 0.175153
-1.350761 -0.260000 -1.848122
-0.742431 0.250000 -0.781599
-0.809821 -0.260000 -0.040508
-1.416744 -0.260000 -0.406959
