ply
format ascii 1.0
element vertex 1665
property float x
property float y
property float z
end_header
-0.138641 -0.232982 0.361916
-1.610849 -0.248329 -1.304007
1.692094 -0.269158 -1.307031
0.506636 0.281825 1.047604
-1.986710 -0.234346 0.161605
1.089843 -0.267950 -1.326228
-1.645372 -0.224745 0.087609
-0.565205 -0.229882 0.941200
0.692749 0.254301 -0.483692
0.589760 -0.272843 -0.941806
0.547627 0.259008 -0.227796
-1.282027 -0.269286 -1.795655
0.169875 -0.235225 -0.406219
-0.685068 0.269299 0.096128
0.964380 0.157645 -0.271656
-0.369113 0.277253 0.731798
-0.613172 0.263427 -0.380916
0.532126 -0.141611 -0.910367
1.155765 -0.259307 -0.698278
0.934899 0.269721 0.872740
0.960368 0.211414 -0.899290
-0.564809 -0.225657 0.451109
-0.214963 -0.218829 0.730918
1.125324 -0.257629 -0.121346
-0.683300 0.158058 -0.904793
-1.971906 -0.213642 1.664371
-0.753997 0.269846 -0.588129
-0.403071 -0.208792 1.896875
0.245914 -0.266989 -1.238046
0.955647 -0.225592 -0.261194
-1.077291 -0.223448 0.492285
-1.238626 -0.250899 -0.855486
-0.606133 -0.242287 -0.869336
-0.854310 -0.250059 -0.742250
0.928984 -0.219276 1.641058
-1.967417 -0.231696 -0.572161
-0.715513 -0.263539 -1.528929
-1.215508 -0.242158 -0.108502
0.682291 0.255482 -0.333399
-0.738212 -0.250340 -0.206386
0.934579 -0.253209 -0.769549
0.398191 -0.242116 -0.526294
-0.866216 0.159265 -0.906389
0.362021 -0.253687 -0.867904
-0.897640 0.071403 1.095150
-0.893922 0.064969 -0.910237
-0.289962 0.263911 0.181584
-0.329512 -0.244999 -0.118088
-0.621684 -0.222442 1.495870
0.118690 -0.245206 -0.552950
0.580679 -0.213720 -0.913361
0.117938 -0.228915 0.916238
1.535747 -0.242104 0.702345
0.287767 -0.231230 0.106556
0.954709 -0.000904 -0.714340
-1.824009 -0.245192 -0.105814
-1.671693 -0.245696 -0.637578
1.643375 -0.274088 -1.039363
-0.589616 -0.228678 1.107467
-1.032686 -0.061111 0.224003
0.273124 -0.256823 -0.799426
0.715736 -0.263002 -0.725464
-1.946701 -0.227570 0.570135
-0.714190 -0.209755 1.934112
-0.253029 -0.237338 -0.392332
1.109385 -0.248739 0.078023
0.871723 -0.234721 1.093777
-1.294171 -0.240530 -0.788360
0.713598 0.274972 0.907120
1.158487 -0.253594 -0.086556
0.258280 0.269730 0.379721
-0.016447 -0.229565 0.293833
-1.012039 0.272039 0.010417
0.156645 -0.269094 -1.114257
-1.640232 -0.245884 -0.467144
0.126947 0.256329 -0.137547
0.098736 -0.210386 -0.905946
0.925290 -0.215353 1.566723
1.436104 -0.223764 1.576955
-1.042336 -0.192743 0.470369
-1.754787 -0.225284 1.177727
-1.838814 -0.262182 -0.966824
-1.047118 0.074468 0.709703
-0.547824 -0.220848 1.249310
-1.030206 0.094468 -0.696643
0.883027 0.258304 0.161504
0.936482 0.264270 0.032493
0.200897 -0.239049 0.524164
1.603476 -0.249869 0.097642
-0.079917 -0.214726 1.096672
-0.258879 -0.247921 -0.887088
-2.018743 -0.263349 -1.854011
-0.182820 0.251879 -0.819711
0.648750 -0.247776 -0.856694
0.957725 0.056850 -0.713193
-1.688594 -0.230691 0.981184
1.532732 -0.229902 1.564562
-0.009239 -0.064609 -0.903879
1.392073 -0.257234 -0.525494
-1.039291 0.106139 0.637326
-0.376094 0.261309 -0.817450
0.604016 -0.228169 0.491957
-1.880268 -0.225488 1.080888
1.477430 -0.240096 1.258592
1.917781 -0.269139 -1.032715
-0.014966 -0.215811 0.624411
0.163245 -0.250501 -0.597546
-1.263714 -0.216458 1.482943
-0.723508 0.290246 0.891030
-1.684377 -0.241256 -0.234621
-1.534357 -0.224501 0.982910
1.889777 -0.241089 0.575218
-1.473100 -0.258012 -1.292297
1.423562 -0.269298 -1.172285
-0.637224 0.264944 -0.458969
-1.969242 -0.257549 -0.772226
-0.317551 -0.254007 -0.580325
-1.043885 0.075705 -0.358701
-1.225293 -0.211249 1.974053
0.184273 -0.246955 0.112040
-0.802679 -0.215512 1.946888
-0.880590 -0.272004 -1.786305
0.363832 0.272185 0.394066
-0.038782 0.110371 -0.910021
0.964543 0.022744 0.669879
1.042214 -0.244105 0.342682
-0.319250 0.267838 0.246420
1.086264 -0.237782 0.542269
-0.744364 -0.235842 -0.567355
0.911573 -0.273328 -1.578191
0.349029 -0.241287 -0.170397
0.005064 -0.238800 0.755919
-0.798276 0.166472 -0.910968
-0.081714 -0.244159 -0.253581
-1.036142 0.120243 -0.737393
0.969124 0.113491 0.491746
1.436029 -0.220197 1.422889
-0.910359 -0.244920 -0.210971
-0.712912 -0.258931 -1.348618
-1.999267 -0.215903 1.327172
1.060833 -0.269580 -1.064369
-1.553797 -0.221945 1.212356
-0.742628 -0.214147 0.730343
0.717266 0.266397 0.467607
0.654261 -0.218835 0.433025
-0.340707 -0.266874 -1.643121
-0.880020 -0.235777 0.609174
-0.302394 -0.233687 -0.331686
0.198500 -0.120851 -0.908818
-0.305085 -0.221658 1.628461
-0.705443 -0.077693 1.093859
1.386250 -0.243038 0.767962
1.489721 -0.222869 2.010976
0.206545 0.252192 -0.811577
1.822809 -0.240480 0.876348
0.838394 -0.238781 0.445812
1.266133 -0.248520 0.320882
0.969759 0.062676 0.020008
0.710065 -0.227162 0.543359
0.748671 -0.217828 0.799107
0.244520 -0.223211 0.708032
-0.713967 -0.109896 1.097567
0.019616 0.275917 0.373470
-0.848153 -0.240732 -0.604589
-0.230398 -0.251450 -0.579548
-1.033334 0.017079 -0.140449
0.957436 0.021630 -0.202596
1.475376 -0.237115 0.778149
-0.152698 -0.270695 -1.623614
-1.301217 -0.239900 -0.123561
1.144016 -0.261967 -0.639009
0.061615 -0.210928 1.099852
-0.745194 0.277821 0.664295
-1.109847 -0.221199 1.339490
-0.781531 -0.226776 0.530452
-0.715237 0.068580 1.105421
0.810734 0.260967 -0.171326
-1.099616 -0.236866 0.021164
1.738757 -0.235160 0.408418
0.933324 0.272893 0.659456
0.554532 -0.221723 0.969279
-1.331355 -0.238330 -0.448468
-0.225245 -0.229577 0.509278
-0.759920 -0.250643 -0.596285
-0.675628 -0.221253 0.859466
-0.969759 -0.240038 -0.833792
0.972166 -0.182798 -0.482626
-0.365251 -0.252902 -0.727888
-0.015873 -0.227479 -0.328582
-1.110160 -0.262487 -1.747788
0.428648 0.135237 1.083165
0.776780 0.268671 0.812311
-1.929078 -0.247815 -1.005960
-1.034340 0.013243 0.694174
0.288972 0.281272 0.818907
-0.420010 -0.220806 1.493235
-0.268058 -0.217632 0.715656
0.838124 -0.247788 0.209341
-0.636213 -0.251687 -0.794390
1.228617 -0.264702 -1.312429
-0.868018 -0.218243 0.327296
-1.895091 -0.258445 -1.401542
-0.164688 -0.001390 -0.901169
0.756615 0.041912 -0.914009
-0.424903 0.267205 -0.152280
1.131641 -0.222440 1.395997
0.297228 -0.223688 1.676953
-1.013124 -0.230075 0.529435
0.260046 -0.224446 1.042949
-0.421387 -0.051627 -0.904425
-1.034124 0.029126 0.572594
0.939794 -0.241468 -0.137550
-1.612433 -0.228202 0.887316
0.598003 -0.229509 1.443866
0.627465 -0.235205 1.320470
0.634429 -0.216830 0.602566
-1.724547 -0.214041 1.925436
-0.468575 -0.209526 2.033512
1.498903 -0.222520 1.756562
0.498915 -0.256218 -0.570243
-0.415242 0.161384 -0.905462
0.272459 0.274967 0.636307
0.487152 0.263933 0.057279
-0.103706 0.257424 -0.270495
0.971403 -0.092440 0.369822
-1.040384 0.099290 -0.788635
-0.276768 0.267307 -0.082213
0.045911 -0.216047 1.061663
-1.017565 -0.210206 1.424346
-0.440123 -0.240077 -0.067924
0.717141 -0.207384 -0.907375
-1.281920 -0.210434 1.960711
-0.562585 -0.222040 1.363139
0.155582 -0.217487 1.732135
-0.549092 -0.232340 0.677650
0.177472 0.280199 0.501290
0.573570 -0.252864 -0.206886
-1.336335 -0.208217 1.758412
1.776064 -0.247902 -0.017271
0.924882 -0.046699 -0.913949
-1.915641 -0.250627 -0.815885
1.702561 -0.255619 -0.289866
-0.008189 0.269775 -0.048947
-1.029033 0.004063 0.065732
-1.005955 0.236166 1.091440
0.964857 0.238858 0.385533
0.432874 -0.266322 -1.260501
-0.457560 0.283678 0.854614
0.641299 -0.232491 0.627621
-0.308732 -0.250825 -0.234487
-1.039866 -0.217483 1.640249
-0.021365 -0.223610 1.492579
0.047099 -0.263684 -1.155533
0.808643 -0.219703 1.257249
-1.052262 -0.052741 -0.700206
0.935432 -0.239613 -0.219390
-1.393563 -0.227039 0.624954
-0.972771 -0.232230 -0.678121
0.043155 0.271838 0.700531
0.009919 -0.234787 -0.551340
-0.560753 -0.214525 2.037873
0.839567 -0.233365 1.179482
-0.932951 -0.227268 1.017035
0.269461 -0.156384 -0.904634
0.851791 -0.256916 -0.566646
-0.535006 -0.232694 0.840383
0.491602 -0.266130 -1.369708
0.568263 -0.208619 2.072225
1.860259 -0.258876 -0.630146
-1.687431 -0.209532 1.827002
1.797099 -0.228475 1.350635
0.863979 0.228744 -0.913383
-0.266162 -0.227644 0.453855
-0.404999 0.095082 -0.910177
0.107082 -0.242401 -0.155926
0.779949 -0.288495 -1.824441
-1.257591 -0.248863 -0.807508
0.967683 0.258216 0.313554
-0.014166 -0.269670 -1.572219
-0.381051 -0.254321 -0.600950
-0.012844 -0.227602 1.079034
-1.036922 -0.060196 0.500731
0.841793 -0.246450 -0.802269
0.217896 -0.244043 -0.690109
-0.526551 -0.216595 1.246620
-0.082628 -0.242191 -0.482249
0.937680 -0.269335 -1.199218
-0.425759 0.255074 -0.089820
0.963562 -0.065875 0.061315
-0.214574 -0.258576 -0.613435
0.496530 -0.222516 0.479937
-0.582859 -0.151517 -0.902174
-0.830633 -0.225619 0.742321
-0.072011 0.276917 0.850582
-0.839551 -0.216344 0.958310
-2.020428 -0.205866 1.747346
0.965279 0.183629 0.428090
0.039816 -0.247320 -0.958259
1.804392 -0.227151 1.313762
-1.625016 -0.215899 1.580204
0.497395 -0.238316 -0.262972
-0.386968 0.271622 0.611713
0.021746 0.281402 0.476306
0.111195 -0.171278 1.082234
-1.438022 -0.240111 -0.341407
1.193761 -0.268817 -1.632720
-0.192832 -0.247527 -0.635550
-0.092445 0.278386 0.049505
-0.533008 -0.248370 -0.489060
1.421866 -0.232425 1.526450
-0.857177 -0.247241 -0.155206
1.317659 -0.250124 -0.162035
-0.344726 -0.253632 -0.931020
0.586233 -0.240737 0.155119
0.614618 -0.270345 -1.466429
0.898130 0.256131 -0.302155
0.962547 0.266002 0.726263
-0.067754 -0.267732 -1.672706
0.265571 -0.253818 -0.569104
-0.932198 -0.267224 -1.429608
-0.221451 0.250765 1.084726
-1.521960 -0.245170 -0.610837
-0.885281 0.049021 1.090136
-1.104382 -0.218603 1.602935
-0.736327 -0.259137 -0.562068
0.737875 0.260037 0.376472
1.175640 -0.237097 0.609064
0.159361 -0.232165 0.639856
-1.592989 -0.206213 1.511538
0.060162 -0.222396 1.704651
-1.283867 -0.225926 1.185071
0.430326 0.273292 -0.114568
-1.033310 0.099446 0.117874
1.588404 -0.240067 0.775681
0.865758 -0.233431 1.192052
-0.221355 0.265646 0.132373
-1.509039 -0.216629 1.589418
-0.575100 -0.269046 -1.357469
0.617342 -0.266784 -1.032689
-0.509909 -0.263586 -1.401768
-1.386875 -0.224622 0.590076
0.655773 0.270884 0.480646
0.289950 -0.217326 1.017023
-0.968186 -0.242056 -0.283606
-0.615944 -0.222669 1.301886
1.850421 -0.279695 -1.797120
0.272021 -0.266843 -1.644601
-0.589458 -0.250526 -0.721612
0.534142 -0.269284 -0.958780
-0.967294 0.283047 0.398101
-0.167134 -0.239901 -0.746220
0.723779 -0.266314 -1.443489
-1.495797 -0.242320 -0.388644
-0.305195 -0.232434 -0.157675
0.994288 -0.250620 0.151638
-0.849420 -0.253446 -0.590869
0.130177 -0.223860 1.154858
1.099682 -0.270915 -1.717181
-0.185437 0.281537 0.697465
-0.116845 -0.235595 0.038826
0.536402 0.285085 1.051154
0.973111 -0.100129 0.857755
-0.416841 -0.164727 -0.908336
0.044296 -0.263146 -0.885784
0.963746 0.249120 -0.628906
0.964225 0.129732 0.008381
0.024619 -0.258706 -0.121022
-0.290637 -0.231537 0.984610
-0.447553 -0.214034 1.222165
1.142975 -0.243640 0.253331
0.482392 0.256216 -0.836615
0.359657 0.251853 -0.553880
1.645811 -0.280119 -1.875694
-1.043791 -0.267778 -1.457475
0.964715 0.155914 0.904761
0.262979 0.260776 -0.291015
-1.542241 -0.248728 -0.638917
-0.615575 -0.222109 1.452709
0.538445 -0.246172 -0.580035
-0.765048 0.259722 -0.363678
1.710340 -0.225936 1.380555
-1.976186 -0.232944 0.276794
-1.835595 -0.244126 -0.593863
-0.455563 0.269720 0.224835
1.172972 -0.259155 -0.521874
-0.035478 0.170807 1.092609
0.842597 0.256818 -0.278876
-0.361439 0.267790 -0.034988
-1.533023 -0.212230 1.700362
0.753078 -0.239534 -0.402220
0.844471 -0.243037 -0.507682
-1.129237 -0.214661 1.881389
0.423619 -0.281207 -1.877242
-0.877203 -0.246275 -0.599365
1.753521 -0.275747 -1.698585
1.733825 -0.270718 -1.179858
0.959229 0.030449 0.521106
0.879475 -0.076835 -0.913171
-0.670651 -0.238471 0.065568
0.805601 -0.248306 -0.090590
1.056788 -0.227557 1.657507
0.494047 0.254368 -0.774428
-0.383622 -0.237251 -0.304713
0.086351 -0.218805 0.453129
0.246483 0.252662 -0.724805
1.754822 -0.239160 0.594349
-0.103269 -0.214392 0.956508
-0.496279 -0.242142 -0.901521
0.853674 0.199711 -0.917406
0.500288 -0.242145 0.686948
0.971900 0.182236 0.669814
-1.798238 -0.218574 1.308123
-0.886928 -0.216920 1.769326
-0.588175 0.279701 1.016512
-0.067000 -0.232776 0.069738
-0.114038 0.247169 -0.805954
-0.062259 0.037981 -0.915750
-0.973020 -0.243003 0.380014
-1.031395 -0.212699 1.897171
-1.288317 -0.237860 0.437417
-1.111549 -0.214356 1.479570
1.350378 -0.230372 0.972862
0.263716 -0.221808 1.037155
-1.728099 -0.247667 -1.008730
0.940265 -0.278359 -1.877278
-0.512804 -0.241825 0.689264
-0.179239 0.257605 -0.513053
-1.968523 -0.207576 1.854414
-0.012397 -0.242848 0.050729
-0.673458 -0.209893 -0.899630
-0.200657 -0.250559 -0.322845
-0.267687 -0.222970 1.315929
-1.802892 -0.211192 2.027084
-0.744733 -0.035151 1.104269
-0.094192 -0.235087 0.211500
0.314481 -0.255401 -0.852379
0.488899 -0.244159 0.342490
0.006084 -0.254117 -0.882446
-1.388313 -0.246289 -0.866237
0.955728 0.063526 -0.498097
0.930446 0.263651 -0.601081
-0.696025 -0.240710 0.122016
-1.490633 -0.224057 0.469669
-0.162023 -0.265416 -1.166444
0.881001 0.256573 -0.265761
-0.038527 -0.223990 0.532755
-0.920269 0.020519 1.100117
-1.281945 -0.261086 -1.324878
-1.751696 -0.245066 -1.218861
0.677693 -0.218632 1.809364
1.597328 -0.268158 -0.923351
-0.290827 0.267939 0.459786
-0.714817 -0.225018 0.716131
0.490302 0.140046 -0.915483
-0.716219 -0.262525 -1.599444
-0.967011 -0.264475 -1.869438
0.935111 -0.221204 1.724124
-0.887771 -0.250922 -0.816533
-1.583986 -0.249596 -1.110173
0.292972 0.258140 -0.579046
0.434572 0.266457 0.184625
-1.913163 -0.252486 -0.514781
-0.037981 0.018553 1.097510
0.293200 0.254977 -0.591540
-0.724481 -0.233782 0.393919
0.105443 -0.248756 -0.487158
1.401114 -0.242355 0.570178
0.557926 -0.220568 1.542212
0.566893 -0.243700 -0.364570
-1.040443 0.101404 0.422601
-0.474555 0.145610 -0.906870
-0.973953 -0.128395 -0.904492
1.892355 -0.238956 0.950350
0.919191 -0.238547 0.225391
-0.772475 -0.226767 1.384214
1.136831 -0.264374 -1.371252
0.332277 -0.249930 -0.863813
1.530075 -0.257876 -0.014047
-1.030457 -0.063882 -0.041669
0.289550 0.252723 -0.835940
1.765101 -0.252796 -0.482736
-0.815081 0.186238 -0.920005
0.693390 -0.054646 -0.913407
-0.978995 0.259563 -0.575781
-1.013219 -0.218500 0.479164
1.068895 -0.248458 0.046196
0.183746 -0.227933 0.878604
1.230204 -0.247231 -0.022374
1.083614 -0.264868 -0.822211
0.981147 -0.235664 1.075953
-1.040319 -0.091012 0.255962
0.490065 -0.228784 0.927826
-1.036304 0.230547 -0.814720
0.312285 0.244761 -0.694212
0.121629 -0.238235 -0.041547
-0.399066 -0.243261 -0.801547
-0.008171 -0.256841 -0.988889
-1.034099 -0.212911 -0.051019
0.608160 0.239350 -0.890283
-0.128023 -0.238963 0.264627
-0.588395 -0.266358 -1.647695
0.654781 -0.248845 0.025374
0.390767 -0.238296 0.431687
-0.026373 0.264564 -0.062148
-0.550999 -0.066154 1.095896
0.497385 -0.262099 -1.101909
-0.402704 0.276780 0.355856
0.615956 -0.227248 0.566567
-0.636153 -0.241085 -0.176087
0.135371 -0.235309 0.508569
0.262615 -0.274710 -1.375925
-1.042569 0.216578 -0.281058
-1.026740 0.133765 1.096504
-0.669776 -0.249950 -0.870368
-1.007733 -0.265214 -1.430612
0.958826 -0.257616 -0.195071
1.798790 -0.228638 1.070560
-1.901836 -0.238931 0.013124
0.933256 -0.236516 0.294920
-0.395645 -0.043413 1.097044
-1.738181 -0.255561 -1.074050
1.694044 -0.266208 -1.125370
0.824517 -0.256385 -0.896534
0.924595 0.278364 0.556665
-0.607942 -0.230460 0.675028
-2.005745 -0.227816 0.446671
0.908865 -0.241239 0.836501
0.947062 -0.250966 -0.909569
-1.713202 -0.234195 -0.178466
1.024581 -0.240215 0.614809
0.244817 -0.253952 -0.339770
0.894871 0.255133 -0.100315
-0.687747 -0.235697 -0.280850
1.228401 -0.225606 1.165450
-0.121913 -0.238979 -0.508184
0.136773 -0.267990 -1.248181
1.267198 -0.271617 -1.424155
0.604792 -0.100672 -0.907584
-0.866724 0.282737 0.799909
-0.328802 0.274516 0.698465
-1.046083 0.134184 -0.409837
0.480058 -0.242318 -0.441725
-0.214903 -0.244767 -0.796116
1.493504 -0.280652 -1.394399
-0.052322 -0.272501 -1.769751
0.962845 -0.180897 -0.207702
0.797577 -0.244715 -0.253384
0.197961 -0.231035 0.298011
-0.060051 -0.224215 0.479574
-0.425554 0.260345 -0.371494
-0.552030 -0.227034 1.332817
-1.047595 -0.247483 -1.045195
-0.209998 -0.229227 0.155645
-0.304645 0.268034 -0.038317
0.233179 -0.246370 0.163391
0.869511 0.240185 -0.717993
-1.218194 -0.242993 0.483419
-0.543191 -0.251751 -0.558172
-0.029081 -0.232708 0.240740
-0.098382 -0.224380 0.218749
0.296153 -0.223401 1.098434
-1.038674 -0.111053 0.014850
-1.010194 0.202806 -0.908770
-1.132292 -0.219799 1.319420
0.738889 -0.262077 -1.213697
-0.531009 -0.220338 0.145778
-0.249512 -0.244371 -0.185371
0.725395 -0.266749 -1.294725
-1.358871 -0.212573 1.425589
0.500119 -0.229405 0.607378
-0.896454 0.236742 1.099100
-0.090974 -0.228413 0.016888
-1.738872 -0.246821 -0.741422
-1.798229 -0.260946 -1.338075
1.818061 -0.236097 1.374863
-0.007761 -0.237978 0.671423
0.028422 -0.241886 -0.558818
-1.035550 0.088657 -0.717336
0.960688 0.136407 0.978061
0.768153 0.251033 -0.684842
-0.540751 -0.239572 0.546822
-0.681047 -0.266585 -1.176087
-0.373660 0.254281 -0.905162
-0.563611 -0.211479 1.483460
-0.180310 -0.178771 -0.907339
0.892927 0.255000 -0.122029
-2.023984 -0.229466 0.542089
0.709695 -0.250740 -0.811457
-0.827283 -0.276526 -1.717091
0.491672 -0.011559 -0.901948
0.481736 0.264102 0.036453
-0.372427 -0.245315 -0.099590
-0.543527 -0.273615 -1.509692
-0.628545 0.161575 -0.908568
0.972967 -0.244432 0.325664
-1.606399 -0.236166 0.007311
-1.504446 -0.210637 1.573337
0.967744 0.029548 -0.028476
1.432182 -0.251122 0.434474
-0.320051 -0.258989 -0.559219
0.582029 -0.234858 0.579221
1.264978 -0.280254 -1.732191
1.827652 -0.265395 -0.830851
-0.244191 -0.272641 -1.687088
0.463513 -0.265009 -0.925008
-0.050144 -0.238590 0.840863
1.921664 -0.215521 1.677741
1.825479 -0.232849 1.685365
-1.186668 -0.247981 -0.564775
-0.054870 -0.225608 1.438570
0.571746 0.250335 -0.540315
-1.897802 -0.234358 0.109951
-0.216206 0.282098 1.098657
-1.863003 -0.203860 2.024427
0.944584 -0.227538 0.788704
-1.227759 -0.217970 1.590825
0.386600 -0.242884 0.032613
-0.360561 -0.237874 0.054305
-0.104143 -0.264402 -1.633044
-0.364909 -0.268304 -1.479270
0.284774 -0.221651 1.461649
-0.530194 -0.221210 1.244357
0.598748 -0.223183 1.590575
1.284851 -0.220925 1.667621
-1.331030 -0.233876 0.376168
1.127058 -0.269757 -1.188229
0.681896 -0.214360 1.985065
0.378704 0.276113 0.778849
0.452067 -0.239964 -0.665296
-0.795466 -0.240637 -0.360277
-1.263627 -0.248345 -0.337361
0.805940 -0.266976 -1.700215
-1.016871 0.222245 -0.902535
1.934238 -0.261000 -0.160827
1.643759 -0.272167 -1.174882
-0.335219 -0.239661 0.511851
1.572848 -0.272467 -1.603232
-1.699209 -0.245142 -0.641853
1.613198 -0.223583 1.834946
0.786136 -0.219948 1.628560
1.901761 -0.278114 -1.663496
1.443091 -0.244048 0.588849
0.191475 -0.265644 -1.085000
-0.178537 -0.234659 0.930020
1.777166 -0.261767 -0.612448
1.762170 -0.219443 1.593166
0.107654 0.275005 0.443866
-0.336565 -0.223799 1.233453
-1.051849 -0.227566 1.233186
-0.786789 -0.234576 0.034372
-0.205479 0.270161 0.686231
-0.321992 -0.232675 0.174888
-0.092882 0.269864 0.479979
-1.077106 -0.247029 -0.594144
-0.114086 0.283484 0.463918
0.657106 -0.233683 0.233616
-0.622872 -0.235707 0.557906
-1.688278 -0.238903 0.217788
-1.031575 -0.184297 -0.276246
1.467057 -0.235431 0.746195
0.553246 -0.238585 -0.423274
1.860704 -0.271501 -0.970812
-0.176916 -0.230573 0.464796
0.575159 -0.243063 0.460851
1.575727 -0.227150 1.624192
-0.390290 -0.207944 1.097951
-1.621659 -0.255736 -1.052366
-1.299857 -0.248233 -0.532254
0.349909 0.268727 0.052424
0.912624 -0.233699 0.232937
-0.214403 -0.221885 0.182338
0.875956 -0.230023 0.592694
-1.575658 -0.256645 -1.218996
-0.468126 -0.263812 -1.697172
0.318541 -0.255187 -0.848771
-1.280559 -0.252082 -0.342892
-1.621321 -0.210131 1.601649
0.360456 -0.219582 0.986730
0.048049 -0.261425 -0.857936
0.303592 -0.246528 -0.827734
0.205367 -0.237984 0.672387
0.956498 0.088153 -0.398103
0.106006 -0.278234 -1.873890
-0.664804 0.264713 -0.378917
0.283077 -0.263998 -1.033522
1.577614 -0.246731 -0.463410
0.968610 -0.222942 1.838765
0.343873 0.254731 -0.380672
-1.040597 -0.253428 -0.294385
-0.957030 -0.228029 0.714647
0.101547 0.279946 1.038152
1.714566 -0.270966 -1.071761
-0.323829 -0.283781 -1.787018
-0.022090 -0.211493 1.828396
-0.140585 -0.244424 -0.736709
1.947721 -0.221715 1.486907
0.370061 0.271464 0.075081
-0.830006 -0.267608 -1.801737
-1.729828 -0.231393 0.504363
0.964660 -0.236907 0.138301
-1.212398 -0.248660 -0.927752
-1.161189 -0.235065 0.312661
-0.761741 -0.222649 1.672553
-0.409166 -0.229888 0.848125
-0.100473 -0.226946 0.796121
1.864634 -0.223244 1.891269
0.264085 0.267989 0.198451
-0.712504 0.262426 -0.067800
0.735299 -0.246266 -0.912301
-0.322890 -0.225636 1.517548
-1.031351 0.274690 0.661434
-0.740364 0.256749 -0.724477
-0.267466 0.256173 -0.365727
-1.046052 -0.150709 -0.848326
0.624508 -0.229563 -0.244950
0.874507 -0.217009 0.822724
-0.203746 -0.250927 -0.575718
0.881073 -0.233032 0.264528
0.156552 -0.235616 0.057812
1.069953 -0.268152 -1.297915
0.016764 -0.100580 -0.901669
-0.068062 0.260905 -0.537359
0.978130 -0.265285 -1.263134
-0.795495 0.074795 1.098564
-0.368668 -0.223876 0.086744
-0.209418 -0.270647 -1.685905
-0.537044 -0.241520 -0.480241
0.370363 -0.213100 2.065997
-1.302267 -0.265214 -1.470327
1.399251 -0.262841 -0.911105
1.896885 -0.239486 0.898951
-0.711995 -0.259286 -0.357836
1.470057 -0.283328 -1.868621
-1.636317 -0.211910 1.694842
-0.599944 -0.244235 0.334208
1.744838 -0.255504 -0.307405
-0.288642 0.251983 -0.862544
-1.986753 -0.233505 1.098547
1.647743 -0.267486 -0.535661
-0.930810 -0.216839 1.411211
1.050522 -0.276716 -0.707554
0.960584 0.182957 -0.674857
0.943654 0.252935 -0.649375
0.964983 0.078387 0.435331
-0.007937 -0.232369 0.090285
-0.229763 0.278428 0.371392
-1.019111 0.217965 -0.903968
1.159568 -0.247459 0.204835
0.727794 -0.262288 -1.675781
-0.588008 0.270848 0.182850
1.829910 -0.256584 -0.437827
-0.829009 0.086373 -0.898213
-1.190148 -0.256605 -0.975839
-1.041682 -0.051580 0.383473
0.823941 -0.217579 1.774361
-0.902744 -0.245322 -0.255650
-0.469532 -0.164497 1.108293
0.096771 -0.225020 1.651129
-0.577781 -0.229762 0.815198
1.117657 -0.252912 -0.129656
-1.039910 0.120516 -0.539227
-1.847524 -0.245371 -0.384671
-0.203548 0.276219 0.500005
0.191149 -0.238542 -0.098358
-1.696407 -0.245751 -0.262236
0.787762 -0.258796 -1.019417
-0.946065 0.276616 0.944324
1.154819 -0.248086 -0.655217
-0.538857 -0.250891 -0.583033
-1.239397 -0.222194 0.830029
1.234134 -0.280716 -1.612556
0.248536 -0.247729 -0.796516
0.554202 -0.245319 0.037354
-0.930099 0.275432 0.302075
1.326365 -0.229412 1.088081
0.811406 -0.227051 1.471207
-0.974777 -0.230134 0.499641
1.323514 -0.231965 1.143441
1.461570 -0.241049 0.619925
1.331872 -0.232954 1.161006
0.038486 0.165642 1.097160
-1.039475 -0.077104 -0.259444
-0.383660 0.281010 0.832097
-1.631629 -0.248303 -0.863604
1.179511 -0.256699 -0.250638
0.685697 -0.277918 -1.413429
0.516088 0.261216 -0.159301
0.613687 -0.274975 -1.636367
1.308364 -0.230684 1.834533
0.710806 -0.240463 0.480626
-1.028319 -0.123951 0.545140
0.606129 -0.208920 1.090116
-0.589533 0.128448 1.101982
1.407336 -0.263942 -0.764875
0.820315 -0.272159 -1.411931
-0.203667 -0.241703 -0.707125
-0.008505 0.258805 -0.808190
-0.363272 -0.261860 -1.266496
0.264799 0.014183 -0.904457
-0.510032 0.217804 1.096783
0.300364 0.268488 0.355390
-0.735779 0.282490 0.790598
-0.130117 0.274618 0.489126
-1.926064 -0.258256 -1.330214
-0.819903 -0.213131 1.001766
0.481372 0.082356 1.096311
-0.755774 -0.137927 1.094302
-1.602242 -0.227797 0.252276
0.970255 -0.238521 0.760939
0.365981 -0.215055 2.056593
-0.390326 -0.239991 -0.369454
0.623216 0.007486 1.091736
0.963522 -0.194049 0.885800
-0.108546 -0.260713 -1.894372
-0.743284 -0.224578 1.148625
0.844836 0.278575 0.966988
-0.853479 -0.225586 1.147902
-0.146276 -0.215398 1.947284
-0.632196 -0.228645 1.373555
0.962397 -0.222663 0.603480
-1.471933 -0.266849 -1.445322
-1.895195 -0.253160 -1.027178
-1.940280 -0.255659 -0.937115
0.516966 -0.243259 0.610902
1.464480 -0.232800 0.895224
1.381429 -0.241255 0.301409
-0.247596 -0.081606 -0.905893
-0.890328 -0.212118 1.497700
0.383344 -0.247257 -0.433061
-1.679184 -0.251005 -0.868841
-1.033014 0.042743 0.124292
-1.974934 -0.204439 1.977588
0.127790 -0.225402 0.670688
-0.507659 -0.269694 -1.834229
0.861250 -0.274526 -1.833788
1.042205 -0.218966 1.345071
-0.388923 0.271518 0.374972
0.627614 0.254057 -0.435420
-1.158693 -0.225467 0.840478
0.841158 -0.275230 -1.836486
-1.550196 -0.211685 1.325902
-1.035943 0.117491 -0.779997
-0.481302 -0.258718 -1.026864
-0.515347 -0.258941 -0.639048
-0.311434 -0.245225 0.242990
-0.124284 0.262788 -0.674566
-0.050447 0.018304 1.091662
-1.033640 -0.176695 0.111976
-1.905772 -0.219770 1.351788
-1.895191 -0.205734 2.087756
-1.521156 -0.209059 1.806585
1.199069 -0.272826 -1.685700
-0.359814 -0.252899 -1.026510
-0.898427 -0.212376 0.583852
1.827315 -0.273523 -1.149021
-0.477699 -0.208072 2.008979
0.330911 -0.215228 1.484146
-0.499399 -0.271973 -1.622161
0.940878 -0.207156 -0.917872
0.921442 0.280271 0.993605
0.681025 0.058224 1.090490
0.728750 -0.247109 -0.409293
0.356204 -0.242077 -0.501218
0.396886 0.267818 0.198980
1.850555 -0.256110 -0.079312
0.023919 0.269959 0.216920
0.176889 -0.270188 -1.768581
-1.239500 -0.230398 1.239497
-1.021016 -0.087465 1.105352
0.136320 -0.239791 -0.064528
-1.911653 -0.214946 1.500285
-0.521933 -0.214500 2.065320
-0.260956 0.261039 -0.870632
-0.530327 0.265648 -0.080033
-1.278891 -0.212858 1.276430
0.712456 -0.263859 -0.682097
1.761361 -0.237373 0.477407
-0.840840 -0.215318 1.889793
1.087313 -0.244505 0.505294
0.165004 -0.241491 0.718112
0.576959 -0.279656 -1.900226
1.650816 -0.223219 2.022547
-0.882855 -0.237121 0.035874
-0.342554 -0.227888 1.005876
-1.046696 0.042746 -0.163701
-0.277700 -0.011876 -0.903692
0.628279 -0.215913 1.046009
0.777555 -0.078000 1.087570
-0.164081 0.170132 1.094056
-1.256010 -0.252262 -1.031120
-0.036409 -0.259260 -0.570761
1.813685 -0.247039 0.589380
0.575870 -0.244603 -0.655441
1.814479 -0.215304 1.989061
-2.027082 -0.220757 0.489788
0.643812 -0.249374 -0.173063
0.537926 -0.236620 0.828443
-0.988178 0.270108 0.858041
1.436604 -0.261825 -0.858196
-1.640111 -0.215766 0.908301
-0.306651 -0.212258 1.778041
0.123593 -0.232873 0.640418
-1.297463 -0.213256 1.760107
-1.042838 -0.202719 0.028397
0.503352 0.249846 -0.663113
1.589946 -0.227341 2.041287
1.389756 -0.231718 0.937377
-1.102261 -0.242528 -0.070843
0.087910 -0.236264 0.135882
0.079045 -0.167195 1.098662
0.846560 0.257007 -0.790423
-1.814369 -0.229583 0.487897
-0.504280 -0.243702 -0.759095
1.793758 -0.240525 0.263970
-0.401898 -0.223477 0.442321
-1.077346 -0.242679 -0.860536
1.592409 -0.285314 -1.757223
-0.663599 -0.226719 0.113635
0.074593 -0.231662 0.041163
-1.234015 -0.223362 1.460422
-0.270631 -0.226286 1.383414
0.963195 -0.109255 0.022394
-0.999841 -0.232669 -0.354085
-1.929877 -0.266266 -1.804011
-0.773458 -0.232414 0.405073
-1.545908 -0.234113 0.205213
-1.072035 -0.227818 0.533726
0.262657 0.277835 0.833100
-1.045085 0.070378 0.175724
0.879468 -0.245194 0.259874
-1.876850 -0.246984 -0.443242
0.388166 -0.125812 1.092172
0.598746 -0.220439 1.739615
-0.330282 -0.235319 0.696094
-0.675934 0.283039 0.482226
-1.492312 -0.209848 1.464795
-0.145079 -0.234874 0.583397
0.140248 -0.228394 0.635221
0.553057 -0.203456 1.947022
0.207836 -0.250079 -0.213196
-0.599092 -0.237859 -0.316084
-1.804940 -0.259228 -1.496189
-1.034482 -0.121597 -0.188158
-0.932950 -0.263380 -0.983802
1.862345 -0.215511 1.621839
-0.048990 -0.110467 -0.912462
0.027797 -0.227128 1.141166
-1.981458 -0.236734 0.408733
1.775805 -0.281422 -1.552810
0.522722 -0.224791 1.523930
0.107797 -0.233796 0.586578
0.746385 -0.243748 0.190247
-1.911128 -0.212478 1.918790
-1.802946 -0.234796 0.473529
-0.750190 -0.257836 -1.388484
-1.031790 0.061725 0.916729
-0.294552 -0.233442 0.527667
-1.905619 -0.256860 -1.548125
1.943393 -0.264517 -0.857262
0.507750 -0.222975 0.664600
0.796802 -0.232199 0.691639
0.654445 -0.254862 -0.796492
0.757123 -0.254588 -0.408381
0.957037 0.168246 0.466619
0.641212 0.260178 -0.461059
-0.893173 -0.260402 -1.159231
-0.283808 -0.271920 -1.649651
0.505301 -0.233251 0.060879
0.704046 -0.238112 0.234857
-0.156669 0.278191 0.792595
-0.336143 -0.250847 -0.840952
0.739115 -0.230764 0.898370
-1.848037 -0.233801 0.508653
1.106770 -0.218960 1.616009
-0.017354 -0.259974 -0.599389
-0.831566 -0.224747 0.244799
0.458940 0.097353 1.085156
-1.395914 -0.206569 2.026124
-0.768130 -0.227129 1.243513
-1.871087 -0.253503 -1.619120
0.326223 -0.249727 0.030196
0.705663 0.277238 1.041174
-1.499092 -0.225915 0.886198
-0.957486 -0.258695 -1.177547
-0.850331 -0.214128 0.587360
0.970389 0.053903 0.068873
-1.387775 -0.253030 -1.197573
0.801712 -0.224727 0.995950
0.885761 0.262217 -0.073401
-0.612414 -0.233478 -0.108789
-0.749344 -0.231487 0.348027
1.057649 -0.271230 -1.296320
-1.455835 -0.224468 0.800023
0.015424 -0.225341 0.452406
-1.589209 -0.251355 -0.078026
0.958882 -0.095380 -0.799304
0.281151 -0.266834 -1.307156
-0.027403 0.277259 0.424842
0.127739 -0.230863 0.634060
0.278171 0.273375 0.543440
0.943591 0.256980 -0.859153
1.939243 -0.263003 -0.432159
0.743572 -0.238433 -0.910156
1.852918 -0.237313 0.948325
-0.072556 0.260816 0.099811
-0.445363 0.242620 -0.792440
-0.677478 -0.220105 1.565945
0.272507 -0.229706 1.067050
0.141257 0.278748 0.832560
1.468976 -0.251038 -0.198284
0.167648 -0.212829 1.659594
0.109746 0.148967 -0.914737
-0.040442 -0.221790 1.085543
-0.250724 -0.245289 -0.848700
-1.500337 -0.248112 -0.771305
1.380857 -0.263756 -1.569920
0.702602 -0.237001 1.312981
1.422793 -0.249142 0.423306
-0.871319 -0.237283 0.432190
1.577150 -0.246518 -0.005506
1.041332 -0.222969 1.379365
-1.041755 -0.199711 -0.517229
-1.037628 -0.164185 -0.040539
-0.788216 0.267688 0.077619
0.541340 -0.263958 -0.732655
0.438175 -0.269385 -1.612403
0.085105 -0.238722 -0.429736
-0.928420 -0.222946 0.328017
-1.264733 -0.234333 0.549665
-0.675354 0.263549 0.024873
-1.902667 -0.216873 1.035899
-1.921440 -0.220105 1.163376
-0.110620 -0.241900 -0.188292
-0.850951 -0.256710 -1.047962
-0.303853 0.266428 -0.123299
0.747067 0.202052 1.078590
-0.570744 -0.227458 0.104509
0.980423 -0.234396 0.628010
-0.970119 -0.236199 -0.169222
-1.265641 -0.241992 -0.082865
1.787613 -0.235018 0.877417
-0.889195 -0.234170 0.265093
-0.170808 -0.261307 -1.282227
0.232658 -0.217504 2.065919
-0.943113 -0.224670 0.568412
0.722666 -0.240364 0.812995
0.508353 0.009264 1.089259
0.506841 -0.244791 -0.203687
1.244819 -0.251094 -0.184954
-1.010770 0.264073 0.021245
-0.605169 0.279631 0.792916
0.100414 -0.240431 -0.100238
-0.216763 -0.217646 0.390883
1.621451 -0.263894 0.083052
0.332941 -0.229818 0.398222
0.404905 0.036963 -0.901324
1.558180 -0.225158 1.693915
1.961544 -0.240404 0.910858
0.962830 -0.178262 0.106732
0.922719 0.028778 1.096736
0.151792 -0.222619 1.084459
-1.927710 -0.258108 -1.184096
-0.172466 0.211177 -0.912409
0.832641 -0.245075 0.042329
-0.958908 -0.212578 1.789482
-0.739167 0.202836 1.090257
1.402369 -0.252494 0.064661
0.279322 0.250293 -0.882080
0.566800 -0.268524 -0.900882
-1.515596 -0.237389 0.525577
-1.032520 0.193002 1.082331
-0.840941 -0.210905 0.891619
1.911908 -0.278130 -1.858420
1.125133 -0.267656 -1.191451
0.675604 -0.246270 0.414914
-1.014529 -0.247819 -0.693949
-1.299421 -0.217396 0.957310
0.036006 -0.250736 -0.841949
1.062402 -0.220624 1.724011
-1.040702 0.267591 0.098040
0.964713 -0.221016 0.770185
-0.708748 -0.259226 -0.892249
-0.715484 -0.240841 -0.264945
0.304672 0.271250 -0.125399
0.250288 -0.228356 0.384907
-1.042987 -0.053130 -0.900438
0.730795 0.246120 -0.795391
0.866786 -0.261042 -1.107465
-1.715849 -0.247302 -0.806276
-1.786532 -0.217867 1.556053
0.125168 -0.245593 0.144215
0.645930 -0.219441 1.954140
1.601752 -0.231347 1.309456
0.511447 -0.225184 1.647204
-0.907938 -0.210005 1.515997
-0.745583 -0.221620 0.756373
-0.034240 -0.055532 1.092850
-0.807718 -0.219736 0.819472
-0.408251 -0.262662 -0.855457
-0.450809 -0.260704 -1.550710
-0.303969 -0.259980 -0.361308
-1.407679 -0.236570 0.036137
0.192488 -0.250194 0.126419
1.448677 -0.250825 0.139805
-0.840586 -0.109189 -0.908622
0.332069 -0.239700 0.585235
-0.395322 -0.249320 -0.732759
-0.025401 -0.245178 0.063547
0.309592 -0.229670 0.400016
-0.859127 -0.237026 0.445148
-1.578702 -0.207985 1.988830
0.971204 -0.082518 0.870563
1.283699 -0.239026 1.093026
-1.765333 -0.210128 1.915409
0.107510 0.277148 0.804221
1.553784 -0.249884 -0.073836
0.326531 0.264466 0.143932
-0.673262 -0.240015 -0.107650
1.633721 -0.220159 1.891798
-0.744884 -0.257623 -0.608951
1.865360 -0.266243 -0.914698
0.117540 0.133088 -0.910993
0.385257 -0.221543 1.575353
-0.143668 -0.243969 -0.797358
0.958297 0.080198 -0.345554
0.330834 -0.255544 -0.859040
0.860530 -0.236750 0.721393
-0.918604 -0.216881 1.859908
-1.247119 -0.217653 0.935062
-0.333317 0.249297 -0.844657
-1.586179 -0.201783 1.758726
1.014328 -0.218314 1.955841
0.799576 -0.254434 -0.696703
-0.416958 -0.258294 -0.873019
-0.655519 -0.257182 -0.835459
0.329670 -0.257271 -1.097655
0.085707 -0.263266 -1.188729
0.274442 -0.247396 -0.612846
-1.041639 0.057364 -0.138871
0.240734 -0.256276 -0.927962
1.056651 -0.237653 0.076640
0.090562 0.036612 -0.908826
-0.307135 -0.231178 0.224316
0.613342 0.203017 -0.910414
-0.760880 -0.234962 -0.294294
-1.046595 0.024060 0.045433
-1.038727 0.136144 0.527508
-1.957833 -0.202628 1.652617
1.378572 -0.254155 -0.150958
-0.292173 -0.162568 1.095710
0.963334 -0.113438 0.607607
-0.741610 0.279167 0.862415
-1.267967 -0.261331 -1.456505
0.301088 -0.224226 0.530600
0.253038 0.264954 -0.250350
1.020051 -0.232589 0.908039
0.351367 -0.232038 1.236558
0.416990 -0.266066 -1.542454
-0.715654 0.183355 1.083885
0.257253 0.268259 0.254363
0.583043 -0.102910 1.098670
-1.229941 -0.250684 -0.872941
0.962515 -0.149125 -0.588089
-1.415983 -0.226796 1.214413
-0.016384 -0.270795 -1.610422
0.148162 -0.242020 0.432933
-1.008742 0.280530 0.662111
-0.158386 -0.237310 0.279312
1.513202 -0.275581 -1.781924
-0.208179 0.268115 -0.057040
0.612905 0.255891 -0.607493
0.809724 -0.223796 1.802113
0.980102 -0.225802 1.146266
-0.408149 0.275847 0.769049
-0.588664 -0.253225 -0.488751
0.967445 0.172733 0.614483
-0.707845 0.257420 -0.367265
0.975097 -0.266052 -1.223711
0.609528 0.261269 0.826976
-0.959313 -0.241635 -0.096440
-0.893170 -0.230424 0.640530
1.541361 -0.281788 -1.528990
0.050789 -0.272625 -1.541317
0.024255 0.245341 -0.875651
-0.612440 -0.229649 0.061596
1.604657 -0.227871 1.037357
1.881761 -0.227504 1.601986
1.379567 -0.234710 0.342950
0.565723 -0.237560 0.202113
-0.131318 -0.249182 -0.317117
1.266590 -0.244770 0.299302
-0.224066 -0.214028 0.955866
-1.352928 -0.205728 1.876707
0.204513 -0.273190 -1.628288
1.179175 -0.263311 -0.320225
-0.703450 -0.231175 0.128531
-1.739545 -0.252894 -0.832931
0.290696 -0.239879 -0.207368
0.833685 -0.234165 0.962165
0.837203 0.258313 -0.211985
-1.520730 -0.216714 1.843448
-0.131464 -0.220934 0.825213
-1.603990 -0.233428 0.121449
0.449054 0.172544 -0.916224
-0.967447 -0.265361 -1.721693
1.002249 -0.212723 1.838394
-0.329881 0.255592 -0.845398
0.297106 -0.277157 -1.831036
1.510212 -0.249623 -0.373896
1.193422 -0.225776 1.185497
0.702543 -0.234219 0.188216
1.085834 -0.235024 0.867113
0.878084 -0.256484 -0.940974
-1.748277 -0.230717 0.156157
0.435259 0.113645 1.086833
0.539155 0.275462 0.558543
-0.870590 -0.247628 -0.574243
0.668490 -0.226930 0.223337
-1.706009 -0.212212 1.688495
0.717777 -0.232460 0.451391
-0.605607 0.274093 0.047818
-0.895129 -0.233552 -0.510680
-0.644806 -0.222037 1.717719
-1.226645 -0.210940 2.018919
-0.168029 -0.262067 -1.073193
-0.334225 0.265148 -0.019859
-1.039720 0.138671 0.004606
-0.541832 -0.232860 0.279053
-0.488690 -0.224837 0.666897
-0.750223 -0.155490 1.100725
-0.326412 -0.230191 -0.086637
-1.338180 -0.237372 0.230006
-0.091284 0.252572 -0.657205
1.343924 -0.265748 -1.060458
-2.015525 -0.261051 -1.824302
-1.878082 -0.214114 1.277953
0.170106 0.254378 -0.694668
0.326191 -0.268311 -1.291305
-0.361420 -0.233213 0.716989
0.282851 0.029433 -0.915069
-0.699949 -0.226954 0.186143
1.665273 -0.262087 -0.850000
0.251939 -0.266122 -1.526542
1.960536 -0.250498 0.530326
0.702284 -0.232443 1.664528
0.067402 0.262546 -0.110592
0.801733 -0.095515 1.083929
0.749813 -0.232172 0.896409
1.424995 -0.235647 1.086859
0.245190 -0.216303 0.876980
1.293954 -0.241595 0.691435
-0.678470 -0.207793 -0.898035
-1.408430 -0.211854 1.779732
-1.592298 -0.218434 1.123585
0.845797 -0.272955 -1.747055
0.730383 0.255936 -0.468334
1.066686 -0.223002 1.869521
-0.037775 -0.213542 1.750085
0.698470 -0.221575 1.148142
-1.760984 -0.249168 -1.453819
0.044237 -0.226246 0.545576
-1.120950 -0.215925 2.049459
-0.898517 0.271492 0.323193
1.081667 -0.218360 1.694375
-0.709959 -0.206468 1.248363
1.379403 -0.232903 1.501322
-0.255647 -0.273625 -1.900212
-0.355500 -0.229907 0.417117
-0.793696 -0.228460 0.387628
0.865584 0.240401 -0.544432
0.997652 -0.242127 -0.334510
-0.607368 -0.258211 -0.846352
-0.253713 -0.235794 -0.299927
0.847578 -0.254386 -0.629704
0.038397 0.011138 1.098835
0.965085 0.246115 0.165016
-0.001674 -0.239930 -0.174009
0.626246 -0.262934 -0.850962
0.613497 0.257562 -0.058660
-0.493933 -0.222178 1.225407
0.552636 0.093032 -0.913859
-1.364384 -0.232012 0.117948
-0.342668 0.261018 -0.379094
-0.409642 0.270094 -0.131342
1.654855 -0.254076 -0.614880
0.257736 -0.219145 1.654435
0.966290 -0.089518 0.937877
-0.702518 0.272072 0.289672
-1.039764 0.190915 -0.771724
-0.501486 -0.258466 -1.403749
1.530171 -0.264186 -0.965764
-1.051765 -0.252379 -1.016964
0.816606 -0.231770 0.794749
0.386526 0.271815 0.642678
0.969991 0.276817 1.016783
0.535179 -0.259388 -0.994270
-0.859997 -0.241548 -0.282434
1.614421 -0.216781 1.864345
-1.532166 -0.263292 -1.877406
-0.169132 -0.261480 -1.524448
-0.614952 0.254613 1.095746
-0.926199 -0.226432 -0.452540
1.480551 -0.229525 1.377522
1.125683 -0.257802 -0.417932
0.558437 0.257189 -0.370876
-1.038329 -0.140586 -0.830964
-2.020182 -0.235015 0.462434
0.203948 0.279674 1.009142
0.625158 0.014557 -0.913078
0.928501 0.244285 0.064551
-0.690630 -0.238013 -0.468834
-0.225293 0.281356 0.901166
0.964778 0.130692 0.103805
-1.908829 -0.250351 -0.451404
0.326991 0.250301 -0.703391
0.194162 0.254720 -0.745697
0.559935 -0.219904 1.553165
-1.038766 0.109047 -0.756254
0.258262 -0.249073 0.506708
-1.269787 -0.245677 -0.625597
1.916938 -0.216818 1.769973
-0.628478 -0.230272 0.455315
-0.404741 -0.236150 -0.393197
-0.010447 -0.213861 1.724020
0.180252 0.012689 1.097470
-1.767517 -0.214580 1.610158
0.528279 -0.215525 1.623233
-1.581989 -0.234925 -0.074916
0.617241 -0.268710 -1.098585
-1.280547 -0.233218 0.541698
-1.512743 -0.218502 1.008882
0.657767 0.249652 -0.559477
-0.623320 -0.219910 1.292310
-0.134114 0.264997 -0.555535
-0.510413 0.290235 1.043947
-0.357574 0.254943 -0.478720
0.577247 0.266035 0.294322
-0.989487 -0.241732 0.380300
-1.688447 -0.225729 1.077481
0.413786 -0.251762 -0.785581
1.684953 -0.274471 -1.867181
0.360715 -0.241474 0.355318
0.966775 -0.166098 0.292562
-1.161637 -0.259781 -1.202604
0.591585 -0.241237 -0.404485
-0.165561 -0.271517 -1.892262
0.579013 -0.258409 -0.600848
-0.890590 0.284346 0.446817
0.791239 0.262499 0.363259
0.666667 -0.245950 0.094716
0.058618 -0.263372 -1.339297
1.618585 -0.222005 2.052273
0.670171 -0.262243 -1.112888
0.231376 -0.263290 -0.785269
-0.319858 -0.139394 -0.910211
-0.545727 -0.261558 -1.346048
-0.013262 -0.205209 1.960790
-0.164862 -0.218487 1.463968
0.321803 0.266919 0.960240
0.733882 0.278362 0.790683
-0.628166 -0.242031 -0.295527
-1.038484 0.232488 -0.595932
1.166306 -0.258189 -0.772976
-0.907039 -0.276352 -1.872931
0.263430 -0.261445 -1.190803
-1.386707 -0.227810 0.885016
0.324061 -0.249712 -0.153272
-0.272853 0.248611 -0.655779
-0.355355 -0.224798 1.089461
0.118431 -0.225441 0.629549
0.506012 0.266212 0.293965
1.798722 -0.250955 0.368496
-1.190115 -0.227758 0.886669
0.846645 -0.221705 0.409795
1.559318 -0.214367 2.030662
0.404891 -0.260277 -1.073639
-0.877963 -0.225404 0.009942
-1.111740 -0.236898 0.071920
0.339218 -0.223172 0.973677
0.700327 0.215457 1.082866
1.044794 -0.225986 1.397571
-0.971762 -0.238277 0.387347
-0.330164 0.268816 -0.023522
1.174420 -0.230561 1.481585
0.142043 0.281278 0.899519
1.877675 -0.225563 1.377142
0.012569 -0.234626 -0.543764
-0.002348 0.266304 0.000782
-1.457296 -0.242586 -0.430230
0.768014 -0.237839 -0.345452
-0.860948 -0.261602 -1.334788
-0.650263 -0.260373 -1.229828
-0.950323 -0.225823 0.126053
0.540564 -0.241546 -0.144529
-1.042797 -0.088433 -0.327580
0.376576 -0.156474 -0.917543
1.142721 -0.264255 -0.943207
1.184952 -0.254143 -0.269332
0.233832 -0.212743 1.752128
-0.981342 -0.231029 -0.074557
0.136907 0.064782 1.099174
-0.102633 -0.141075 -0.904362
-0.516128 -0.276731 -1.645313
-1.340631 -0.253495 -1.209986
0.408671 -0.246856 0.046441
0.696308 -0.225011 0.546502
-0.883309 0.267102 -0.183144
0.393069 -0.248447 -0.661313
0.168587 -0.262902 -1.171829
0.955662 -0.131840 0.942982
-1.022662 0.127083 -0.500667
0.136178 -0.237412 -0.481828
-1.760580 -0.214929 1.408526
0.170488 -0.275661 -1.723761
-0.608442 0.273713 0.261037
1.405788 -0.252493 -0.189459
0.220155 0.277127 0.775672
0.126610 -0.245115 -0.336948
0.855825 -0.284803 -1.686175
-0.633002 0.273302 1.089108
-0.286007 0.285782 0.935816
-1.775515 -0.246320 -1.061965
0.986247 -0.237216 1.316439
1.588227 -0.260894 -0.353163
-1.034499 -0.035619 0.376666
-1.044859 -0.002508 -0.138336
0.337416 -0.235090 -0.190377
1.827566 -0.278732 -1.740432
-1.501354 -0.231187 0.400535
-1.046135 -0.055388 -0.202547
-0.219677 -0.248273 0.061150
-1.414568 -0.249614 -0.774328
0.113966 -0.006672 1.084896
0.650558 -0.248113 -0.134320
1.675404 -0.220882 1.958914
0.890688 -0.225106 0.632602
-0.038940 -0.241335 -0.196984
0.237115 -0.236638 -0.454715
1.679158 -0.261028 -0.801694
1.704222 -0.268704 -1.254093
-1.112461 -0.226827 1.493907
-2.022200 -0.250691 -1.418088
0.845075 -0.250778 -0.200820
-1.037862 0.168777 0.275707
-1.586818 -0.219558 1.227243
0.723114 -0.230188 -0.049528
-0.335835 -0.240410 -0.563742
-0.894065 0.264864 -0.151755
-0.563276 -0.245692 -0.437185
-0.542245 0.272763 -0.280624
0.778823 -0.264233 -1.314968
0.853572 0.264196 0.107570
1.366138 -0.269839 -1.005956
0.355856 0.253739 -0.314523
-1.207041 -0.257052 -0.837032
-0.824187 0.278206 0.522882
0.607085 0.160535 1.084241
-0.406737 -0.240033 -0.609528
0.053284 -0.268227 -0.714497
-0.149074 -0.250192 -0.641317
1.660123 -0.227656 1.477056
1.844814 -0.222768 1.912567
-0.114245 -0.253291 -0.955771
-0.226077 0.286592 0.995583
-1.728640 -0.212434 1.804507
0.678864 -0.201072 -0.904986
0.914144 -0.247224 -0.571839
0.961978 0.079208 0.729604
0.446078 -0.276116 -1.472787
-1.067005 -0.264474 -1.084045
0.583495 -0.265058 -0.668418
-1.681088 -0.266596 -1.291976
1.604861 -0.261047 -0.680211
0.856431 -0.229184 1.336429
0.016168 0.285041 0.811882
-1.030826 0.015498 0.585810
0.661878 -0.227414 1.061022
-0.452532 0.248715 -0.550567
-0.282828 -0.239111 -0.116753
0.338288 -0.229167 0.712107
0.638643 -0.230514 0.650271
0.772152 -0.251312 -0.541223
0.200622 0.249069 -0.194379
-1.269992 -0.217234 1.732858
0.100222 -0.231195 0.901406
-0.418183 -0.217776 2.089635
-0.370019 0.054282 1.086925
0.716999 -0.272370 -1.279513
0.444701 -0.232876 1.409427
-0.452616 -0.216667 2.035745
0.347348 0.267298 -0.000033
1.331357 -0.228136 0.522100
-0.372918 -0.217484 1.570012
0.571262 0.263972 0.245148
0.663972 -0.222223 1.343505
-1.810039 -0.224623 1.622374
0.313938 -0.215576 0.925809
-1.053692 -0.242404 -0.503155
0.184001 -0.230682 0.733962
-0.557764 0.274911 -0.567538
0.537831 -0.220671 0.844861
-0.381429 -0.052009 1.098563
-0.757270 0.255348 -0.588819
-0.673576 0.074507 1.093886
-0.226073 0.265006 1.098567
-1.074483 -0.249284 -0.201130
0.958266 -0.191273 0.818785
0.331563 -0.220794 1.487463
-1.938322 -0.214652 1.413467
-1.030474 -0.237097 -0.354474
0.520418 -0.257397 -0.805959
1.022881 -0.254972 -0.268696
0.303703 -0.241628 0.653735
-1.101216 -0.223478 0.687517
-0.663793 0.263412 -0.158372
1.749836 -0.239940 0.796958
-0.974937 -0.223849 0.733703
0.772024 -0.171689 1.093943
-0.359078 0.260493 -0.364781
-1.021645 -0.242316 -0.482895
1.823722 -0.274532 -0.836461
-0.934733 -0.196080 -0.907989
-1.142632 -0.212797 1.059990
-1.036034 -0.095091 -0.405030
-1.034054 -0.045037 -0.425535
0.800601 0.250939 -0.793627
1.594329 -0.273174 -1.209220
0.673900 -0.213696 2.000676
1.245701 -0.270223 -1.220025
0.589042 -0.244351 0.003147
-1.718223 -0.250570 -0.746928
0.680562 -0.221890 1.843108
-0.368572 -0.216711 0.499261
-0.380508 -0.238090 0.444633
1.601645 -0.232883 1.035185
0.907088 -0.026111 1.093473
1.779071 -0.255085 -0.143840
0.808416 -0.278962 -1.813970
-1.616561 -0.254307 -0.857891
-0.925624 -0.208925 1.759861
-0.988337 0.250970 -0.649161
-0.179053 0.261281 -0.108469
-0.802660 -0.221870 1.167795
-0.476790 -0.238521 -0.468518
-0.048812 -0.245839 -0.203113
0.123031 -0.227435 0.445179
-1.080771 -0.222144 1.078828
0.645936 0.261643 0.608073
1.227775 -0.218993 2.044490
0.385807 -0.236636 -0.100818
0.009429 0.256100 -0.524987
-2.009157 -0.202541 1.940183
-1.038196 0.191761 0.331773
-0.404413 -0.244699 -0.452842
0.935173 -0.225543 1.241883
0.155057 0.098060 1.084643
1.577379 -0.226561 1.548930
0.320164 0.253241 -0.860379
-0.370346 -0.071909 -0.905165
0.671455 -0.268317 -0.924382
1.347642 -0.265066 -1.335440
-1.630402 -0.262586 -1.321649
0.670030 -0.256554 -0.283163
-0.930109 -0.195930 -0.910047
1.260001 -0.277778 -1.810749
1.775349 -0.231444 0.968016
-1.036555 0.039296 0.953362
0.045841 -0.225554 1.368687
-0.525025 0.268659 -0.270593
-1.057825 -0.261387 -1.292687
1.226435 -0.252512 -0.325423
1.367905 -0.251352 0.077741
-0.579638 0.252379 0.000239
0.654541 0.162503 -0.916487
-0.970935 0.254326 -0.651916
0.465885 -0.250908 -0.301174
-1.042243 -0.104694 0.270063
-1.437411 -0.218696 1.708863
1.120904 -0.252481 -0.240229
0.930697 -0.222965 1.644110
-0.046987 0.257926 -0.878481
0.697393 -0.222398 1.493371
-0.156216 0.281839 0.758344
0.576762 -0.242758 -0.063449
-0.086020 -0.247358 -0.644853
-0.318351 -0.209288 2.067500
-1.697571 -0.218182 1.516842
-0.865737 0.083461 -0.911426
0.271238 0.255467 -0.852434
0.162683 0.272570 0.925794
1.894148 -0.261307 -0.799655
-0.923348 0.263616 -0.446510
1.675866 -0.238028 1.093098
0.148602 -0.224563 0.980246
-0.809466 -0.223469 0.726502
-1.014775 -0.265060 -1.562793
-0.667782 -0.260371 -1.143769
-1.042712 -0.083558 -0.397940
-1.031932 -0.046608 0.729649
-0.985781 0.283957 0.662036
-0.340518 -0.248222 -0.639084
0.407362 -0.224079 1.271839
-1.932510 -0.218666 1.117078
0.960649 -0.143616 0.744301
0.956938 0.234060 -0.866192
-2.017584 -0.253390 -1.729803
-0.373130 -0.236757 0.456684
0.284152 0.272285 1.084279
-0.044235 0.276107 0.959587
-1.263587 -0.226344 0.962204
0.532885 -0.240725 0.333305
0.974781 -0.211341 0.882585
0.081907 -0.263044 -0.985297
1.229592 -0.230074 1.114268
-0.635229 -0.228039 0.990174
-0.128347 0.260719 -0.458987
-1.152472 -0.270014 -1.760603
-1.937425 -0.247604 -0.410866
-0.187470 -0.231851 0.219386
-0.124740 0.082509 -0.907088
0.481964 -0.230689 0.364463
0.364805 -0.234841 0.627167
-0.462529 -0.234738 0.115071
0.931835 -0.217759 -0.910308
-1.179962 -0.269805 -1.893885
1.395195 -0.241128 0.603044
-0.342183 0.269818 0.843040
-1.744904 -0.215157 1.788112
-0.198223 -0.216755 0.492758
-0.992461 0.279473 0.915156
0.430298 -0.219046 1.489195
-0.263205 -0.232202 1.043211
0.619664 0.253710 -0.581657
-1.340718 -0.235613 0.091668
-0.626701 -0.232264 -0.015791
0.633431 -0.245928 -0.472195
-0.668611 0.224327 1.098036
1.085943 -0.263767 -1.468075
-1.387243 -0.255451 -1.660760
-1.135576 -0.241055 -0.299070
0.507164 0.273781 0.537213
-1.003559 0.213022 -0.912815
1.088872 -0.250596 0.146513
1.135336 -0.264247 -0.816944
-0.534165 -0.211912 1.877590
0.961952 -0.086718 -0.447570
0.963209 -0.052198 -0.534783
-0.496999 0.283458 0.751036
-1.036278 -0.115540 0.161652
-0.848873 -0.236082 -0.145588
-1.516404 -0.240314 -0.457836
1.572976 -0.221999 1.927565
0.162536 -0.104814 -0.905247
0.918017 -0.243034 -0.562639
-0.881649 -0.263851 -1.371304
0.957628 0.103057 -0.535208
-1.037334 -0.202857 0.964067
-1.039225 -0.046166 0.404691
0.655966 -0.264443 -1.505126
0.590648 -0.244738 0.006859
-0.487749 -0.254753 -0.947632
0.879131 0.148333 1.089434
0.773913 -0.232140 -0.131083
-0.712949 -0.246677 -0.834552
1.159125 -0.225974 1.447569
